# .PCD v0.7 - Point Cloud Data file format
VERSION 0.7
FIELDS x y z
SIZE 4 4 4
TYPE F F F
COUNT 1 1 1
WIDTH 1560
HEIGHT 1
VIEWPOINT 0 0 0 1 0 0 0
POINTS 1560
DATA ascii
374.37131 201.09869 -705.16943
375.8338 199.77512 -704.70227
377.30347 200.21057 -704.83826
374.91837 202.02422 -705.6272
376.88644 202.877 -706.03577
381.42377 202.96663 -706.32343
381.58487 204.69522 -707.03894
382.22357 205.51257 -707.44037
381.79797 207.7563 -708.46265
384.71826 206.85172 -708.17621
381.80356 210.95258 -709.83411
387.36786 211.05386 -710.12061
384.16345 212.38596 -710.65002
384.4743 213.19748 -711.00903
385.586 214.82927 -711.78516
387.81287 213.2059 -711.17682
386.9823 216.74811 -712.72595
390.34918 215.56479 -712.36359
387.25882 218.73639 -713.65869
389.0174 217.3806 -713.06915
390.78738 216.2518 -712.72656
390.06564 220.90402 -714.66882
399.79721 39.550346 -676.87177
342.3913 87.333656 -667.17731
342.86713 86.643906 -667.45148
350.13324 84.402542 -668.27521
336.5972 91.10321 -666.19415
340.16788 89.531891 -666.50165
344.78619 87.347427 -667.17346
335.60309 93.741791 -665.96765
340.7442 90.954514 -666.12634
331.53375 96.737442 -666.00018
335.34665 94.881378 -665.95575
337.72534 94.428177 -666.00488
339.07663 93.895355 -666.02356
332.85031 97.819138 -666.23053
334.64627 97.670425 -666.28296
335.09451 98.948059 -666.66644
338.76978 98.966125 -667.00531
333.33423 102.56694 -667.53113
337.85849 100.74365 -667.42468
338.60883 99.862366 -667.18445
334.61734 103.41153 -667.92261
336.76135 103.33344 -668.17322
336.74255 105.1642 -668.63934
335.0611 107.0094 -669.0592
336.93112 107.72144 -669.38818
338.76434 106.5574 -669.1994
334.2933 109.85043 -669.77692
335.14798 110.22322 -670.03375
337.00558 108.56624 -669.70032
339.78894 108.40959 -669.93683
335.84238 111.48744 -670.46521
340.79181 110.76794 -670.79114
341.79816 108.74507 -670.18958
336.1936 113.29633 -671.01996
338.61688 111.59206 -670.74579
338.18436 115.02776 -671.7326
339.4082 114.07571 -671.58484
341.57394 112.92715 -671.42999
343.57294 113.23872 -671.72382
337.8877 116.90134 -672.31995
339.67096 115.29175 -672.03009
341.44534 115.10558 -672.14819
342.79272 115.75793 -672.49396
338.53979 120.054 -673.33594
341.03177 122.0994 -674.19482
344.13644 121.35605 -674.24554
346.18582 120.69 -674.23938
342.41754 122.88599 -674.55292
342.69672 122.41087 -674.42358
345.38385 121.65759 -674.42145
340.23734 125.99518 -675.2865
342.70895 124.48944 -675.06049
343.73132 125.17554 -675.41736
345.35614 124.47693 -675.26154
341.34753 128.43597 -676.22778
342.14789 127.75626 -676.03534
347.8551 126.86391 -676.26666
343.40103 130.11481 -676.87494
345.82608 129.33359 -676.88623
347.73502 128.77643 -676.92444
359.69754 135.73193 -682.32678
357.43365 142.9462 -684.95898
359.64801 142.00587 -684.66827
359.8826 140.4933 -684.07794
358.89331 143.72601 -685.32178
361.84128 143.6351 -685.11011
359.21094 144.55792 -685.67877
361.98602 145.3222 -685.67944
362.68185 148.66841 -686.63
361.30661 149.9312 -687.27069
362.40216 150.40526 -687.20929
361.45224 153.66023 -688.49011
363.65973 151.84676 -687.36322
361.7785 154.71684 -688.73773
363.88083 156.4252 -688.82263
365.11377 158.07582 -689.09766
363.45193 160.87749 -690.45056
365.65747 160.97408 -689.94287
363.90533 163.78867 -691.35547
366.51062 163.48833 -690.72211
365.05432 165.96228 -691.85626
367.73077 166.2906 -691.51068
367.29852 166.93593 -691.83936
365.95605 169.59084 -693.04437
368.44971 168.83925 -692.32782
366.16196 172.05873 -693.97369
368.28143 170.27504 -692.90887
369.60785 174.10414 -694.13922
369.34647 176.94875 -695.38007
372.38788 179.32449 -695.97491
370.1308 182.334 -697.47827
371.198 181.47824 -697.11218
373.73483 181.49275 -696.80896
371.35004 182.88647 -697.63641
371.46408 186.47316 -699.07648
372.82544 185.94034 -698.78497
371.76648 187.54169 -699.46478
372.50128 187.82935 -699.53119
374.92331 188.89095 -699.95032
376.39709 190.93408 -700.76965
377.09726 189.94922 -700.32916
375.9624 194.16171 -702.17224
379.0769 194.94051 -702.56787
380.28711 196.91922 -703.51031
382.47021 195.99916 -703.1532
379.93414 198.26633 -704.10388
381.41492 198.31725 -704.22034
383.50269 198.60106 -704.40503
382.20795 200.84132 -705.40381
383.91492 199.67711 -704.90503
383.31433 204.18338 -706.93018
385.57535 204.98546 -707.37457
384.99915 206.40578 -707.99963
387.51608 205.80652 -707.90009
387.38434 208.36874 -708.99048
388.02789 208.05565 -708.86951
389.74664 207.37411 -708.67871
390.24847 209.7355 -709.69788
389.3501 211.73442 -710.58118
391.53491 211.41025 -710.57178
393.50684 211.49483 -710.66443
390.06647 212.83385 -711.12335
392.93054 212.62123 -711.08673
393.37164 213.32414 -711.39886
391.16895 214.58185 -711.93579
393.20541 214.60147 -712.03656
393.01245 216.72844 -712.94592
397.11676 215.09053 -712.4231
426.84271 11.058952 -678.18036
414.45694 23.362167 -676.51501
388.38519 54.072258 -674.8504
386.08044 57.555672 -673.22736
382.51877 59.993469 -672.84283
358.88965 80.494186 -668.91071
352.52216 84.563438 -667.87543
355.09677 83.562714 -668.01715
345.80933 87.859016 -666.82086
349.87146 86.20504 -667.35443
353.06049 84.703766 -667.71771
341.76562 91.309799 -666.18567
343.65079 90.979645 -666.23285
345.85159 89.496445 -666.49719
347.27399 90.097839 -666.44354
349.57092 88.450684 -666.66772
341.8898 93.50708 -666.16351
345.61102 92.793335 -666.2616
338.86755 96.96225 -666.45947
339.20258 97.992279 -666.74689
342.78754 97.261032 -666.85608
345.59424 96.871307 -666.99774
342.18753 100.29066 -667.68066
344.08194 99.185623 -667.5213
345.4104 97.990417 -667.29626
345.30176 99.966156 -667.88806
343.91772 102.13557 -668.42938
344.14069 105.27473 -669.30896
345.24255 104.61374 -669.26007
346.12686 103.47397 -668.99542
348.71396 104.68925 -669.58447
341.74969 107.4023 -669.74414
343.49826 107.70316 -670.02026
345.19507 106.64948 -669.87109
349.06726 105.05984 -669.75769
342.70889 109.46312 -670.47607
345.10196 108.37508 -670.37799
346.67957 108.37244 -670.52148
343.89523 112.03328 -671.35803
348.6116 111.09596 -671.51208
350.14966 110.66585 -671.51099
344.48041 115.26329 -672.36273
347.07324 113.87253 -672.20392
350.77811 112.89339 -672.26422
345.65686 116.77721 -672.93378
349.56821 115.75496 -673.02411
347.99234 117.70477 -673.46484
347.3284 119.97031 -674.11316
349.26938 119.58351 -674.16663
351.76071 117.84592 -673.84045
352.69418 119.10071 -674.31598
347.89035 121.73381 -674.70465
352.33197 121.04379 -674.8811
350.38995 123.10425 -675.35529
363.27313 129.63933 -680.19122
363.30231 131.21756 -680.69659
364.10757 130.55405 -680.46808
361.07077 134.14861 -681.78137
363.49429 133.07828 -681.36621
363.22968 134.19348 -681.76178
362.10864 137.54655 -683.02789
363.55011 137.0993 -682.74225
364.23541 138.58876 -683.08527
363.26538 141.66211 -684.21857
366.155 141.11281 -683.4884
365.0675 148.08058 -685.87708
367.11032 148.63057 -685.59821
364.56464 151.99315 -687.1792
366.91266 151.72714 -686.6189
366.88513 154.16164 -687.40167
368.34396 153.61736 -686.91064
366.81451 156.19495 -688.10388
368.40262 154.70264 -687.24927
368.51447 156.84743 -687.97998
366.90149 159.56284 -689.31415
370.04639 162.59334 -689.73108
367.69989 165.01727 -690.98547
371.77368 166.99289 -691.14215
369.1467 168.11865 -691.89526
369.91962 169.69705 -692.45203
370.55713 170.65625 -692.68286
371.97116 176.397 -694.84589
374.63086 178.01566 -695.26422
373.33585 180.08066 -696.25562
375.75323 179.68498 -695.97198
376.86221 181.59532 -696.73749
377.59055 180.27652 -696.13623
378.58884 181.94423 -696.82007
377.0694 183.77495 -697.68573
379.80746 183.95818 -697.6756
377.70383 186.89359 -699.03082
379.70517 187.3479 -699.22961
382.28265 187.25333 -699.22449
379.67673 188.83908 -699.84375
381.72525 189.60207 -700.28687
383.21771 187.9697 -699.59827
384.6803 189.98929 -700.47253
382.0531 193.36424 -701.9762
382.67389 192.5349 -701.6452
383.71326 194.34821 -702.46454
386.51367 193.31343 -702.17688
385.41797 196.35703 -703.40582
387.63916 194.7119 -702.88391
385.04865 197.92902 -704.09814
386.48163 196.95152 -703.77271
388.12494 197.30157 -704.00116
386.28162 199.41087 -704.95947
389.20959 198.93892 -704.82727
391.1123 197.81271 -704.38672
391.94641 198.17506 -704.62531
392.67883 199.91753 -705.39478
392.04871 201.71646 -706.13184
392.68573 201.37634 -706.0976
390.46964 204.46548 -707.37042
391.6561 203.4837 -707.01154
393.89636 202.50702 -706.6369
394.86719 205.08607 -707.86389
396.39703 204.47044 -707.64355
391.79153 206.56027 -708.35858
394.53033 207.06029 -708.71722
397.65271 205.76045 -708.29626
398.20343 206.56406 -708.71826
395.11017 209.11929 -709.67517
396.30322 207.30832 -708.87616
396.82663 210.0247 -710.19354
399.56747 209.68362 -710.1424
397.74219 214.13644 -712.07886
399.70004 212.74608 -711.51691
398.33038 214.50096 -712.26074
418.31766 20.862961 -676.16968
411.91235 28.237 -675.39325
411.46832 29.904861 -674.93121
372.92105 70.742218 -668.99469
356.9516 83.324234 -667.71899
354.78555 84.904808 -667.39374
351.69943 88.598557 -666.63733
353.89441 88.542908 -666.59369
356.54715 87.117935 -666.60645
346.62732 93.144241 -666.32562
347.47818 92.017685 -666.28339
349.70337 92.221039 -666.43152
351.3714 91.630188 -666.47876
353.70343 89.5168 -666.50702
348.53122 93.690308 -666.45105
349.73883 95.17482 -666.85388
351.23248 95.603912 -667.12146
352.92181 94.80072 -667.03308
349.60504 97.51178 -667.57745
352.92157 97.176712 -667.70642
348.81793 100.33607 -668.3465
350.72012 98.226456 -667.78125
353.02188 99.217941 -668.30017
351.11899 101.12666 -668.74518
354.64053 100.34833 -668.79706
349.24475 104.21219 -669.49561
353.39178 102.41634 -669.27863
351.85187 105.13911 -669.95435
353.65295 104.5313 -669.92841
352.35397 106.70351 -670.46484
357.11566 105.63225 -670.61017
351.07758 109.83595 -671.34961
355.31921 108.40053 -671.28314
356.34073 108.20009 -671.29822
358.21692 108.38588 -671.54028
355.62244 114.2038 -673.03888
353.35168 116.43864 -673.5426
354.72607 116.61458 -673.7124
364.65326 123.06166 -677.94489
366.57986 121.68028 -677.5116
363.99191 124.53934 -678.40039
366.95535 123.91835 -678.16949
367.25201 125.27948 -678.59558
364.46518 128.88275 -679.93359
365.77298 129.43166 -680.03369
368.26987 129.83566 -679.75916
366.43552 132.25105 -680.81793
365.52222 134.58195 -681.62225
366.77274 135.3831 -681.6062
368.75909 134.85527 -680.99432
366.73117 140.2352 -683.08655
367.35205 143.04832 -683.67816
370.05524 143.34511 -683.17749
367.54172 146.07457 -684.63043
368.59778 145.74478 -684.31781
367.66486 148.27116 -685.26337
368.94952 147.29677 -684.74408
370.05017 148.70377 -684.89783
368.54688 150.54195 -685.8551
370.12509 152.09047 -686.01691
371.13644 154.24367 -686.5672
372.54626 154.32343 -686.30743
370.91119 157.52321 -687.75934
371.91022 156.13528 -687.04291
370.33762 159.07109 -688.38269
373.01456 158.62111 -687.76868
371.05188 160.45044 -688.76886
373.18512 160.39363 -688.41125
374.19824 161.6835 -688.73248
374.83316 163.3629 -689.3501
375.77264 166.13727 -690.29968
374.57941 167.68777 -691.07422
377.02145 167.97502 -690.95581
373.9082 169.07237 -691.68689
378.81583 170.88972 -692.02136
375.29218 172.54454 -692.96924
378.27368 172.65031 -692.80011
379.87634 174.22951 -693.39679
378.53839 179.45203 -695.67365
380.30298 180.80574 -696.26984
383.53836 179.15225 -695.60321
381.25446 181.29277 -696.55463
381.62097 181.43945 -696.58282
384.41415 180.67763 -696.28552
381.23541 183.968 -697.7262
384.68643 182.51128 -697.09662
384.08014 184.87454 -698.2265
387.47217 184.31836 -698.06995
384.10519 186.218 -698.76801
385.58545 186.27689 -698.87292
384.98718 187.61458 -699.44
386.1535 187.71468 -699.55347
389.27045 186.66902 -699.18079
387.2149 189.65251 -700.5199
391.42114 189.11176 -700.46106
390.1095 191.66205 -701.55182
391.94269 190.3929 -701.01538
391.66602 192.28394 -701.9278
393.25943 192.47054 -702.05872
389.6347 194.58984 -702.8399
391.578 193.41454 -702.42828
394.38391 193.86731 -702.76343
390.7254 196.43767 -703.75134
392.96271 196.31815 -703.74182
394.48779 197.25925 -704.32404
396.44958 197.46028 -704.47217
397.38605 200.21109 -705.763
396.83771 202.01016 -706.51404
398.98938 204.4677 -707.72748
400.37668 202.49525 -706.87384
398.52231 205.68433 -708.29095
401.44266 204.54204 -707.95135
402.44363 204.36209 -707.89136
401.0473 209.77036 -710.13953
404.0072 208.05589 -709.57251
405.9946 207.77995 -709.5863
412.36627 32.833168 -673.24103
403.45001 44.256012 -673.24139
373.75177 71.974304 -668.29944
374.70477 71.673729 -667.96063
374.29846 72.367607 -667.97272
369.44467 76.314468 -668.3703
366.48196 80.606796 -667.17053
368.92572 78.761719 -667.48004
362.6257 84.018288 -666.68243
360.82327 85.6922 -666.50781
358.21985 88.068649 -666.49445
360.2655 89.175751 -666.42352
361.29404 88.98233 -666.42627
355.36084 92.653076 -666.75739
359.85999 90.126038 -666.47034
353.86841 93.420227 -666.81458
356.99786 93.159515 -666.90826
355.03735 95.525391 -667.39575
360.74036 95.416702 -667.78912
356.55637 97.69162 -668.18555
358.46088 99.161575 -668.72491
355.87299 100.89462 -669.06445
356.85294 101.42783 -669.31079
359.18988 101.47798 -669.48767
361.95789 100.38916 -669.4541
363.03876 99.207092 -669.16705
357.07211 104.29297 -670.15955
362.88605 101.94577 -669.92297
362.64844 103.77393 -670.4845
358.28906 107.16254 -671.16394
361.02014 105.65926 -670.96582
369.72467 114.29201 -675.04572
369.73346 115.22005 -675.31036
366.74905 119.02641 -676.64081
367.27417 118.83907 -676.54266
370.6767 119.83615 -676.53845
367.36133 121.52698 -677.38513
368.44299 122.75516 -677.64697
370.25537 123.81964 -677.64642
371.35376 124.09579 -677.41028
368.89389 125.86435 -678.53748
368.6954 127.23189 -678.85706
371.46347 126.57407 -678.08472
369.59116 129.57887 -679.35388
370.56049 129.8306 -679.13745
371.52582 132.14192 -679.56018
370.09338 133.56522 -680.32251
372.28647 132.53525 -679.44598
371.37482 138.83287 -681.51508
370.76343 140.30994 -682.09912
371.15515 140.24741 -682.0014
373.4209 144.59161 -682.81372
372.37781 147.28584 -683.96381
372.04581 149.46425 -684.70221
372.08203 151.78673 -685.48273
375.32657 151.14911 -684.69043
373.46024 154.09508 -686.04736
375.54968 153.40953 -685.47632
376.45355 157.66548 -686.94031
377.18286 158.96613 -687.35071
378.63791 159.80769 -687.53058
376.42429 162.3597 -688.79211
375.72302 163.34505 -689.22144
379.7674 163.26753 -688.8075
376.81042 164.90213 -689.71851
378.83069 165.72496 -689.86493
380.06396 164.3224 -689.23853
378.17358 169.47015 -691.44061
379.19913 168.58464 -691.04401
381.5119 168.3291 -690.86371
382.19983 172.37016 -692.59308
381.39291 173.11621 -692.93085
383.55783 174.17177 -693.34052
383.07098 175.61569 -693.99438
386.00061 177.07837 -694.68866
387.76492 179.01617 -695.6676
386.52234 180.66101 -696.35455
388.38763 179.7883 -696.01385
389.97107 179.36436 -695.84155
388.0885 182.04408 -697.00635
391.61984 180.31461 -696.42529
388.11877 184.02547 -697.90515
390.15576 183.17834 -697.70398
390.13324 185.1223 -698.51617
392.1087 184.35634 -698.26202
393.32916 183.79802 -698.02698
390.64871 186.37186 -699.15942
393.11722 186.50127 -699.2467
394.43875 186.15393 -699.17139
393.56631 188.6781 -700.22192
393.56891 190.11497 -700.98248
395.10675 189.91312 -700.96692
393.97034 191.24802 -701.56232
397.10165 193.88031 -702.84338
398.07864 194.04709 -702.91809
400.73004 193.96519 -703.07031
401.69962 193.38145 -702.85541
400.96576 195.66501 -703.86621
403.48975 195.72301 -703.96796
400.05807 197.04054 -704.44696
402.1546 197.01013 -704.53595
403.32916 197.73367 -704.92291
400.81329 200.01453 -705.8111
402.07748 199.62022 -705.66504
404.30188 199.46605 -705.75513
405.55182 198.44925 -705.33087
402.2421 200.62978 -706.17749
403.50394 201.80034 -706.79492
404.68109 202.54338 -707.12299
407.14194 200.94043 -706.53296
405.32745 203.68431 -707.71704
406.98441 202.96484 -707.44757
431.79944 15.80397 -673.98541
411.76788 35.443192 -672.47955
407.82379 43.127724 -671.39844
402.17889 48.235153 -672.31073
402.02939 48.676537 -672.3136
376.17178 70.914871 -667.73431
374.37259 76.137787 -666.58087
368.59735 82.086502 -666.47668
370.48126 81.516205 -666.38751
365.52136 85.138489 -666.31464
366.97781 83.839165 -666.32635
368.59842 83.054626 -666.31482
362.71194 88.388947 -666.43372
364.34836 87.224815 -666.32751
362.26044 90.54953 -666.6449
365.22156 90.000198 -666.57855
361.43866 91.94313 -666.86401
364.68463 90.458664 -666.70471
364.13037 93.565231 -667.53674
365.01843 93.578461 -667.57843
367.50812 93.022705 -667.66229
362.69824 96.486801 -668.2818
363.67371 95.61322 -668.11304
365.39764 95.751129 -668.24664
368.25497 94.223679 -668.104
362.96552 98.345703 -668.88428
365.03964 97.45192 -668.76721
366.04541 97.487595 -668.87543
363.42737 99.116638 -669.13483
364.45142 98.921768 -669.14001
371.88074 103.11319 -671.58105
372.63824 104.21475 -671.92834
372.83566 109.44475 -673.41125
373.55402 108.16417 -672.98645
370.89209 111.9565 -674.26691
372.68219 110.987 -673.83649
374.05511 110.76202 -673.54236
370.5029 114.1293 -674.94214
373.35553 112.69952 -674.20642
372.47815 115.64516 -675.08026
373.84027 117.0502 -675.04199
372.89819 119.8884 -675.96216
374.47119 122.06905 -676.07635
372.24207 124.50473 -677.29761
375.01764 123.76823 -676.41571
372.1907 129.81711 -678.71313
374.71967 127.74533 -677.51428
372.60284 131.61397 -679.09979
373.91714 131.35123 -678.70605
373.27191 135.51675 -680.04974
374.14233 138.07776 -680.63232
374.58972 141.16862 -681.47656
376.46741 140.01987 -680.70197
375.01984 142.42805 -681.80219
375.85294 146.60899 -683.0069
377.46994 145.99141 -682.52539
378.31812 148.46469 -683.25153
377.38074 150.93593 -684.28564
379.30911 154.06433 -685.24042
377.61896 154.70441 -685.66418
380.88971 156.62996 -686.06104
381.49524 158.60469 -686.82367
382.10193 160.58438 -687.57013
383.02252 161.70126 -687.96069
382.37579 163.59 -688.81085
383.92035 163.02425 -688.49579
384.29694 167.83932 -690.57477
385.258 166.63286 -690.08252
386.7818 166.28603 -689.88617
386.87509 168.36093 -690.73077
388.36786 168.17482 -690.79364
385.67303 171.00897 -691.92004
387.68005 172.75241 -692.81805
389.96265 171.54576 -692.33685
390.82745 171.59418 -692.36853
391.07208 173.1814 -693.12006
393.03101 174.9557 -694.0365
393.41159 174.87161 -693.97833
390.26932 177.10422 -694.86249
392.79742 176.43927 -694.62549
394.81921 175.84634 -694.45825
392.40414 179.07454 -695.8172
395.51447 178.03661 -695.44275
396.09595 177.65211 -695.33832
392.64313 179.91875 -696.25488
395.64984 179.37062 -696.13898
397.58228 179.90605 -696.4704
394.03833 182.56764 -697.55432
398.36383 180.96382 -696.96198
395.1973 183.51704 -698.05029
395.83163 184.91226 -698.67511
397.67657 186.57814 -699.49304
401.62219 187.54958 -700.18628
400.1142 190.05363 -701.23193
401.09729 190.09619 -701.28876
402.97198 191.29123 -701.95557
402.35654 192.8416 -702.64777
404.12823 192.23671 -702.45618
406.94168 192.47632 -702.6568
403.8992 195.1608 -703.77795
407.40479 194.40645 -703.57648
407.00079 196.41081 -704.50208
408.55655 195.32425 -704.15198
408.72549 197.94971 -705.27332
409.11945 197.62605 -705.1474
412.45169 197.4201 -705.21277
407.52649 199.14771 -705.74341
410.53696 198.3614 -705.54102
411.89349 198.31264 -705.55011
411.27243 199.97781 -706.28174
413.56369 200.51981 -706.63281
409.63522 202.04247 -707.19031
413.39685 201.07349 -706.88892
438.56909 13.038918 -673.60828
430.78455 18.068451 -673.05615
434.99329 15.907722 -672.99115
429.9129 20.073761 -672.2879
414.46695 35.745972 -671.04163
409.58337 43.116737 -670.50934
406.26694 46.876541 -670.78522
407.90973 45.800049 -670.34589
393.11279 62.948021 -668.49469
382.51254 70.183311 -666.53479
379.14349 72.064003 -666.28351
381.7569 71.599312 -666.01172
377.84137 75.237595 -665.68005
378.64001 74.819778 -665.52246
374.62357 78.806519 -666.07422
371.18744 82.17028 -666.26001
372.48865 81.761467 -666.17493
376.03171 80.468369 -665.71783
373.9805 83.677856 -666.14307
375.18124 82.587334 -665.95685
369.04105 86.630508 -666.25201
370.58704 85.888519 -666.28674
371.73053 86.140015 -666.29504
369.09848 88.385857 -666.50031
371.659 87.724289 -666.56793
372.46204 86.699493 -666.46185
369.64352 89.919601 -666.96692
373.09744 89.040771 -667.0592
369.12433 92.413818 -667.60278
374.66049 90.193863 -667.60254
374.57379 93.499985 -668.67535
376.46167 91.621101 -668.21307
376.87759 93.150909 -668.65649
375.01608 96.6269 -669.62714
376.99133 95.385666 -669.3385
375.95078 97.931816 -670.03516
374.6196 100.90494 -670.9541
376.1123 100.24572 -670.65509
374.14566 102.49588 -671.38165
377.27859 101.62622 -670.86334
374.2757 106.89838 -672.53363
375.8645 106.26241 -672.11407
377.79788 106.6273 -671.74835
375.11356 108.18253 -672.67078
375.92148 108.34456 -672.58752
375.4534 111.24344 -673.39801
376.97604 109.71371 -672.63715
376.24899 113.60056 -673.62665
377.23856 114.55717 -673.58014
374.98053 117.64653 -674.89117
377.59897 117.40087 -674.14465
377.35117 119.49079 -674.6969
375.86621 121.50682 -675.60779
377.57156 122.4057 -675.35419
377.43634 123.54842 -675.70746
378.50647 124.05312 -675.5741
376.54083 128.75543 -677.31506
377.8952 127.77306 -676.69952
378.12433 135.62247 -678.97845
377.43109 138.06802 -679.87512
379.55014 137.95474 -679.44293
377.72052 140.43948 -680.60077
378.53125 139.16394 -680.02679
379.85364 141.01831 -680.40387
380.33926 143.1642 -681.09302
381.38037 144.58353 -681.46179
379.94043 146.99385 -682.54138
382.34265 146.15869 -681.92468
380.11084 149.94847 -683.59607
383.02274 148.81456 -682.84369
381.80304 152.72623 -684.47894
382.42621 154.4745 -685.14612
385.03412 154.33659 -684.87189
383.62344 157.02722 -686.02765
385.2572 156.05753 -685.57788
382.97287 157.30812 -686.20691
387.9187 157.17538 -685.95538
387.79773 159.48853 -687.00262
386.724 161.37677 -687.77246
387.06732 163.40019 -688.62732
387.6474 164.74707 -689.20959
388.77563 166.16382 -689.87939
393.48682 169.23929 -691.37946
394.85614 170.64948 -692.10156
393.91345 173.19731 -693.24298
395.82251 172.50195 -692.98126
397.67456 172.46242 -693.07379
394.50549 174.29764 -693.76917
396.17291 174.32426 -693.82568
398.04788 173.22098 -693.41083
396.49817 175.62083 -694.48273
398.63806 175.89218 -694.677
396.71759 176.84424 -694.96118
399.2485 177.0065 -695.22174
399.75885 178.86801 -696.10718
402.2424 178.64526 -696.09064
399.94754 180.40562 -696.79712
403.26764 179.70493 -696.62054
400.65207 181.61284 -697.40356
402.27167 181.32289 -697.41241
403.91302 180.84021 -697.23041
402.67575 184.05498 -698.65222
407.57541 182.81006 -698.26898
404.61557 184.96465 -699.15515
408.40549 184.75235 -699.22174
407.29752 186.34239 -699.88861
407.79037 187.875 -700.64209
407.98193 190.13266 -701.69684
410.68472 189.42096 -701.42554
412.49725 188.96783 -701.37238
411.75461 193.79761 -703.49066
413.72253 192.19852 -702.81805
415.31009 193.82022 -703.69641
413.12769 196.67744 -704.84265
415.48016 196.45685 -704.77509
413.57266 198.83284 -705.85632
413.64203 197.92886 -705.46497
417.82678 35.760452 -669.45465
410.31189 43.849686 -669.84479
407.43097 49.715233 -669.13837
393.91968 63.732941 -667.82568
385.55118 72.026436 -665.18317
380.55615 77.253464 -664.95178
376.54456 80.533432 -665.69208
379.46106 78.752014 -665.21576
377.60852 82.699326 -665.92188
380.09763 81.485611 -665.66168
376.49338 84.394508 -666.34015
377.00812 86.951096 -666.79865
379.81912 87.710548 -667.09399
380.46063 86.569679 -666.77899
377.53116 92.821251 -668.58057
377.63821 93.220207 -668.66132
381.60999 93.668945 -668.26172
381.28693 94.924019 -668.54474
380.64487 97.115005 -669.16302
381.21423 98.653534 -669.33282
379.13373 100.92893 -670.34229
381.1069 100.71394 -669.74219
378.91101 105.31264 -671.18854
380.81302 106.36253 -670.86725
378.56094 107.05374 -671.6051
379.89279 106.56913 -671.12976
379.16083 109.14574 -671.91663
380.97046 110.61549 -671.71088
380.729 119.39238 -673.7851
378.54761 121.21501 -674.815
380.78601 122.8073 -674.61627
378.97195 124.86746 -675.69873
382.12741 126.06871 -675.2027
379.91605 127.457 -676.11768
381.55338 126.92607 -675.62988
379.42773 130.12405 -676.9837
380.30298 129.47064 -676.6145
380.45322 132.0956 -677.3808
382.55673 131.20399 -676.70923
379.86926 133.21902 -677.82678
382.48236 134.18147 -677.70221
384.44403 138.98293 -678.95538
384.1915 140.69769 -679.65656
382.90674 145.02524 -681.4538
386.32285 144.31477 -680.7937
387.23059 145.54355 -681.25354
385.80945 147.86035 -682.22498
386.09497 149.90625 -683.03064
389.07849 149.28867 -682.64038
385.74194 152.12796 -683.94049
387.48605 150.54422 -683.21204
390.17691 151.19513 -683.43488
387.04602 153.13443 -684.2439
388.29135 153.14911 -684.22003
388.38135 155.20938 -685.10474
389.47974 155.08485 -685.03748
389.61578 156.15317 -685.48511
388.99493 158.56635 -686.52283
390.26599 159.77686 -687.07233
394.92004 163.52238 -688.90326
397.50781 165.26001 -689.69861
398.00107 169.88548 -691.90088
404.08353 171.6821 -692.987
402.74619 173.82339 -693.89777
407.63385 174.25629 -694.341
408.54224 175.19156 -694.82709
408.69092 178.02342 -696.1004
409.35461 178.94348 -696.58167
407.93842 180.50208 -697.27216
410.16895 179.5509 -696.86688
409.06799 182.6246 -698.20789
413.11377 181.13055 -697.75824
411.64444 184.22955 -699.07806
412.34299 184.69774 -699.36316
414.86935 185.37723 -699.75854
414.68527 186.1545 -700.11505
415.48505 188.40839 -701.2821
414.68237 190.87206 -702.30408
416.94159 189.45087 -701.74268
419.19867 189.61374 -701.88013
415.01483 191.33882 -702.52576
417.79971 191.78197 -702.88446
419.20502 191.05145 -702.62054
417.85043 192.73578 -703.27814
419.03186 193.31778 -703.57074
421.91122 194.1301 -704.00922
418.8844 196.81482 -705.11212
427.20935 29.105423 -668.67114
414.46884 41.440872 -668.68243
410.54831 49.036049 -667.60608
389.72852 70.585396 -664.83734
384.10895 74.6502 -664.73352
385.27008 75.050018 -664.50024
386.1835 78.19873 -664.53998
386.20764 80.36557 -664.84369
384.66034 82.742889 -665.52167
382.47849 84.877312 -666.25983
382.46655 87.30616 -666.8465
384.33093 86.318939 -666.34143
383.28851 91.377129 -667.47382
384.12228 90.540955 -667.04065
384.14856 92.508598 -667.39966
384.32065 91.603897 -667.24048
384.659 95.084244 -667.77612
382.35596 99.299843 -669.12701
384.85364 101.4345 -668.76849
382.98807 104.80207 -669.88153
383.53943 104.12754 -669.63947
381.79819 109.06719 -671.10657
383.5412 108.88844 -670.56842
384.71869 113.17905 -671.20551
381.53702 114.57318 -672.34033
382.60962 116.1707 -672.42456
383.14716 117.86333 -672.77557
381.66226 118.9557 -673.41718
381.94208 120.74773 -673.79962
384.78998 122.47683 -673.61725
384.6041 125.37451 -674.48676
384.05981 127.8289 -675.34338
384.90442 128.55899 -675.41101
385.49841 131.03445 -676.12177
386.35864 133.29852 -676.73352
385.9548 134.46921 -677.24988
385.31119 137.42804 -678.31177
386.867 136.23116 -677.70947
388.2616 134.94254 -677.08179
387.44449 137.54539 -678.13324
385.79736 139.48996 -678.98065
387.2276 140.57184 -679.26227
390.24368 142.12979 -679.66803
389.43188 142.99548 -680.02533
390.50168 142.57724 -679.83142
390.21664 145.82515 -681.14679
389.94598 147.76328 -681.93927
390.44763 148.54677 -682.25201
393.21448 147.30273 -681.71088
392.67886 149.44928 -682.59796
392.03619 152.93726 -684.11493
395.70621 155.06787 -685.14948
396.75305 155.91888 -685.55127
404.42056 161.94872 -688.55103
404.80881 164.7589 -689.92548
408.25732 171.01985 -692.88086
413.293 175.756 -695.245
412.16776 178.04565 -696.31769
414.25455 178.30228 -696.53973
417.0769 178.3132 -696.67102
417.37131 182.37102 -698.5556
416.61584 184.99796 -699.67468
419.87268 182.55121 -698.69818
416.97437 185.12834 -699.74194
418.81717 185.11145 -699.7619
419.39951 185.44617 -700.02863
418.54443 186.99585 -700.66425
421.13013 187.59705 -701.10199
422.97479 186.71979 -700.78162
420.37531 188.63351 -701.54083
423.17209 188.49529 -701.61206
424.83023 188.03181 -701.47412
421.48578 190.10699 -702.25629
424.42038 190.16516 -702.38068
426.53699 189.69644 -702.24945
423.12231 192.70796 -703.44867
423.06882 193.36722 -703.79211
440.58875 18.060745 -670.12885
422.78348 34.812775 -667.73468
396.74988 68.704514 -664.23126
390.64719 72.199745 -664.01123
387.83902 75.852226 -664.06989
389.79639 76.756416 -663.69299
386.99579 80.268356 -664.6394
388.31461 79.680717 -664.36505
388.91315 80.77121 -664.34827
386.80923 83.630997 -665.35321
388.77258 83.50766 -664.79938
388.43942 84.949181 -665.10205
389.51746 86.633034 -665.12842
386.01697 91.593384 -666.76825
387.80695 92.159065 -666.39917
387.59167 93.782616 -666.72095
387.32117 96.542969 -667.22253
385.15289 98.243103 -668.11456
388.39612 98.320374 -667.20581
386.26312 99.415337 -667.98755
384.82355 104.40595 -669.33344
384.8667 108.24586 -670.12744
387.08691 110.26794 -669.87811
385.23029 113.28728 -671.0824
386.9212 117.21716 -671.64722
387.9968 116.43147 -671.17224
386.60229 118.12299 -672.01794
386.29889 124.77468 -674.01569
388.78116 123.83076 -673.25262
387.14551 125.52731 -674.04218
388.31799 125.10133 -673.69678
387.80502 128.84303 -675.03625
388.5722 128.69859 -674.89355
390.89197 132.03687 -675.74805
388.82614 134.05121 -676.73499
390.71042 134.17534 -676.50507
391.63361 136.94077 -677.50537
393.40536 136.64366 -677.2757
391.74591 138.81799 -678.20593
393.57858 139.31589 -678.33588
392.13605 140.21811 -678.79895
394.95337 141.94908 -679.38898
399.82919 154.49899 -684.99896
404.86395 153.14807 -684.63715
405.63354 160.49454 -688.07202
415.99792 173.3349 -694.28699
416.1972 173.8889 -694.60132
419.67618 174.10632 -694.8371
419.04626 175.87381 -695.62708
422.36972 175.6765 -695.7074
418.15533 177.86029 -696.49146
421.67245 177.76556 -696.68085
422.53497 176.69955 -696.16827
423.58698 178.862 -697.26508
421.0238 180.33249 -697.79626
423.47314 180.32376 -697.91046
422.06152 182.76953 -698.85986
423.34183 182.00296 -698.67639
426.3205 181.43896 -698.60895
426.26453 182.97461 -699.24225
428.42667 185.83423 -700.59961
430.97498 186.02295 -700.90186
426.96387 188.91359 -701.95654
428.62558 187.94653 -701.67255
439.83826 22.876602 -667.56403
428.15533 32.535423 -666.48132
423.6474 36.819183 -666.47272
421.98288 39.418747 -665.97467
407.23056 61.545807 -664.59692
398.95392 67.52356 -664.35583
394.74493 72.972733 -662.78113
391.54889 77.227356 -663.35266
390.42383 79.045441 -663.80457
391.49518 78.489632 -663.43475
390.34311 80.650574 -664.04285
392.34521 82.201012 -663.71417
390.73993 85.747894 -664.59821
393.08203 85.44828 -663.99634
388.94998 92.634941 -666.16821
390.28256 91.127106 -665.56903
391.7478 90.347694 -665.06549
390.38907 94.790787 -666.1485
391.3277 96.57621 -666.18652
390.28638 99.082916 -666.91199
391.41647 101.90512 -667.15289
391.85193 103.27911 -667.31189
390.77728 106.41027 -668.16638
391.82611 105.96067 -667.85962
388.34384 108.63445 -669.16614
390.37769 107.80467 -668.53802
388.53647 109.6675 -669.38354
391.79755 108.62518 -668.4267
388.75815 112.32507 -670.00134
391.35004 111.81113 -669.26147
389.24829 114.78393 -670.49323
389.38904 116.50919 -670.98047
390.70575 115.87924 -670.51843
390.21927 117.51968 -671.06177
392.57776 116.43091 -670.3064
391.06586 120.07792 -671.67102
393.42276 123.4537 -672.42224
394.20306 123.95594 -672.52399
391.15967 127.85209 -674.23047
394.83267 127.46505 -673.66809
395.49283 128.70546 -674.07373
394.61401 130.42732 -674.8147
393.71338 132.4873 -675.65179
395.18573 132.87195 -675.67798
393.59491 134.11534 -676.25952
395.9895 133.73575 -676.02466
397.08215 134.21202 -676.07837
396.19 136.07607 -676.9201
397.53268 136.41946 -677.00543
397.62842 136.76262 -677.16895
397.57343 141.50824 -679.16833
427.13632 172.60901 -694.58014
422.55356 174.9032 -695.34515
426.24722 174.61176 -695.39337
426.33182 176.59499 -696.4353
428.50906 176.95905 -696.56555
430.31763 178.82874 -697.51941
430.04742 180.74223 -698.33179
433.98428 181.91937 -699.05804
434.922 182.40475 -699.33386
435.3241 27.136692 -666.72705
431.48563 31.332932 -665.83459
437.39084 27.711731 -665.76849
433.57312 31.522621 -664.98206
428.78073 36.763771 -664.39392
428.37088 37.16642 -664.41174
421.33188 43.222054 -664.71808
419.20526 47.975777 -663.81799
403.90726 66.450775 -663.53888
405.47977 65.436386 -663.52478
407.97452 64.73838 -662.90094
398.45959 70.859306 -662.64124
395.56207 74.668831 -662.15906
396.22049 75.903656 -662.03864
395.1221 81.074158 -662.86371
396.0766 82.656128 -662.8009
395.79559 83.146255 -662.90894
393.82571 88.382217 -664.30066
393.46106 90.444656 -664.67023
394.91281 92.037178 -664.64001
395.49191 94.319893 -664.88739
394.42896 96.674637 -665.5575
392.43826 99.631935 -666.52905
393.55566 98.052109 -665.95612
394.21353 99.992683 -666.16724
394.34921 102.07251 -666.54968
394.47852 101.93987 -666.55377
392.82098 104.23161 -667.28644
393.65012 107.41443 -667.82703
394.59882 106.43533 -667.43622
392.61511 108.83659 -668.29828
395.80902 109.54734 -667.89075
392.47128 112.08873 -669.19055
393.28571 111.38948 -668.77991
395.92023 113.60232 -669.02258
393.9921 114.20808 -669.42047
393.09628 116.27075 -670.16071
394.79736 117.22105 -670.23285
395.25754 118.79061 -670.65552
394.52533 121.13032 -671.55591
396.51938 120.25376 -670.96289
395.83441 122.28305 -671.69995
397.87289 121.80489 -671.33777
397.94025 126.04174 -672.87195
397.84412 127.30199 -673.38873
399.74493 126.91528 -673.09363
397.01334 130.15663 -674.47369
399.27295 129.88516 -674.28442
400.10168 128.80568 -673.8092
397.40021 131.5448 -675.09448
398.55023 132.80652 -675.53168
429.17426 171.62109 -694.08679
429.33789 174.19781 -695.31183
438.97763 178.86533 -697.94122
434.47717 31.614395 -664.76831
433.4411 34.696602 -663.43805
428.74774 37.586502 -664.07141
430.28357 38.426628 -663.05768
426.659 41.083504 -663.2821
423.11319 45.004196 -663.20508
425.73834 43.037224 -662.81659
417.96826 54.093269 -662.04285
400.36533 73.433556 -661.35303
400.83859 74.839699 -661.03558
399.05975 77.544678 -661.34351
401.0285 76.321091 -661.03253
397.44299 78.783081 -661.9408
397.43036 81.302505 -662.35968
400.13971 81.129089 -661.69995
397.47632 84.072083 -662.71881
398.88556 82.968727 -662.23297
400.69373 84.71067 -662.28027
398.36328 87.590729 -663.15906
398.57159 89.529053 -663.45813
399.01569 91.756363 -663.78705
396.65906 95.121941 -664.79968
397.25842 93.593414 -664.38971
399.50238 94.299431 -664.18719
396.92664 97.105286 -665.133
397.51965 95.662415 -664.74432
400.24188 94.690025 -664.12543
397.52374 100.99885 -665.79285
398.28101 102.0638 -665.9198
396.62347 104.33278 -666.6861
398.43918 103.60207 -666.24731
398.45084 105.51326 -666.64111
397.55566 109.16737 -667.57306
398.80121 113.00061 -668.37573
400.53934 112.28783 -668.02295
399.27509 114.32917 -668.73151
400.50616 112.76472 -668.17847
397.05994 115.48574 -669.36597
399.40762 115.12464 -668.97333
398.95026 119.84575 -670.58002
401.20129 118.98156 -670.05975
399.59082 122.20924 -671.38135
401.61646 121.8568 -671.04529
400.88568 124.90316 -672.32025
404.43005 124.07731 -671.80499
434.95538 171.00957 -694.32013
442.71606 176.23033 -696.89569
442.95251 174.75073 -696.33191
444.86606 26.32177 -664.2887
427.80243 41.828941 -662.56873
425.73975 44.84053 -662.02753
426.04041 43.725372 -662.39349
422.0722 48.80188 -662.06714
425.10895 47.764336 -661.14191
420.38318 52.209381 -661.63281
415.46851 58.457787 -661.81439
415.91614 60.955727 -660.74249
414.05643 61.854805 -661.37567
408.85443 70.537575 -660.16351
407.2952 73.18663 -659.99738
404.00211 76.5606 -660.47351
405.46094 75.896042 -660.16095
403.75961 78.00827 -660.61096
405.16638 77.838989 -660.3963
401.1507 83.507248 -661.93622
404.69995 81.470078 -661.05829
402.4071 86.646812 -662.29852
404.55896 87.930756 -662.34943
400.4957 92.524651 -663.69043
403.6449 92.569931 -663.37775
401.13593 95.500526 -664.23291
403.65393 94.4991 -663.76465
401.63254 96.649643 -664.43127
402.1496 96.486412 -664.29858
404.37915 97.038338 -664.19482
402.00464 98.911369 -664.78088
403.45978 99.717834 -664.85486
402.22552 101.36806 -665.34656
403.92514 100.27497 -664.95306
403.96899 103.56233 -665.68909
404.51251 102.8615 -665.50793
403.9765 105.46479 -666.09045
401.24588 107.37092 -666.54108
402.54169 110.47691 -667.27051
401.95599 113.55687 -668.24915
403.78656 112.95718 -667.92029
404.52234 114.32095 -668.29474
402.88834 116.30599 -669.03729
405.05072 115.71519 -668.65765
406.26389 116.03162 -668.79419
403.85941 118.44359 -669.65656
403.44305 120.76686 -670.48889
408.3999 120.67649 -670.42065
445.97531 171.90225 -695.04059
445.38208 172.48666 -695.2948
437.85333 34.564865 -662.08539
438.45197 35.514412 -661.45477
432.11279 41.462097 -660.84045
423.29651 50.99234 -660.73297
425.12515 50.777649 -659.96851
422.46011 54.430237 -659.78052
418.3255 59.285858 -660.01184
416.13568 62.134171 -660.31299
418.23407 61.758041 -659.36053
416.60144 63.85923 -659.51355
412.23535 66.921753 -660.27679
409.13678 71.70636 -659.85126
409.82162 70.405602 -659.93835
409.63159 72.15818 -659.66986
409.20004 75.890541 -659.70117
406.94641 77.708527 -660.18018
408.53958 77.791313 -660.06506
408.50238 79.102684 -660.2984
410.29868 78.540085 -660.08008
405.729 82.192917 -661.11035
407.04413 84.380104 -661.42688
407.77319 82.804619 -661.02844
409.86542 83.39843 -661.10858
406.44806 85.838707 -661.79834
408.41632 88.532219 -662.20306
405.11987 91.095551 -662.94012
406.59702 89.643944 -662.46149
409.09821 89.635544 -662.39832
407.2962 92.359436 -663.1012
407.72784 91.541435 -662.84802
409.29666 90.404938 -662.59271
409.82913 92.811272 -663.11078
408.99054 95.843307 -663.79779
406.00305 98.022095 -664.36554
407.92804 98.210106 -664.31
407.03632 100.48801 -664.83356
405.9487 101.89017 -665.1947
409.34525 101.32043 -665.00092
410.33649 101.4422 -664.94727
410.73306 104.8538 -665.75647
405.4209 108.25484 -666.65045
408.82669 107.43314 -666.39948
410.45312 107.18417 -666.35321
407.6171 110.83942 -667.18158
408.38773 110.4034 -667.07733
406.75983 112.45194 -667.6991
407.0553 115.4025 -668.52588
407.74527 116.18901 -668.74292
445.38016 168.64116 -693.48041
446.72095 168.60162 -693.48914
448.49127 169.28406 -693.7547
447.69629 170.12202 -694.16632
449.98288 169.89365 -693.8233
448.13229 172.32187 -695.03241
456.74792 21.656342 -664.05804
437.56879 37.819122 -660.59814
439.78745 35.934441 -660.70941
442.35413 34.728271 -660.54932
433.13062 44.78775 -658.94312
428.57935 48.519806 -659.388
429.4389 49.551666 -658.6333
426.97095 52.97538 -658.48242
424.62851 56.529762 -658.36047
419.75201 62.264183 -658.80145
421.95065 60.447075 -658.40698
415.94305 65.934738 -659.26434
418.53577 66.368347 -658.63623
414.57709 69.497955 -659.09326
418.01306 69.084221 -658.66821
414.3418 71.685059 -659.06879
412.40778 74.779655 -659.42175
411.97925 75.690659 -659.53107
413.88919 75.235649 -659.39795
411.21289 78.961784 -660.13568
412.16611 78.717583 -660.09723
415.13342 77.304779 -659.79974
412.51538 81.074753 -660.58575
416.37277 79.330437 -660.26691
411.04507 82.659958 -660.8396
414.20193 81.95575 -660.85089
415.90671 81.336838 -660.716
414.91754 83.928062 -661.2439
411.59332 85.780128 -661.5235
413.57358 85.891434 -661.66907
415.15671 86.363693 -661.86938
411.10043 89.580513 -662.33069
413.47739 87.465012 -661.91791
416.51254 86.639801 -661.86975
414.21625 90.344162 -662.65472
415.99591 88.719078 -662.41504
411.26611 92.750092 -663.08368
414.83298 92.293839 -663.10687
411.4165 95.245827 -663.62109
415.49786 94.427032 -663.61572
412.58624 97.29348 -664.10541
416.21869 96.621109 -664.146
410.76047 98.677002 -664.37537
411.35297 100.97533 -664.93915
412.2251 100.92135 -664.92749
416.05325 101.08376 -665.02582
417.00006 101.57967 -665.3175
413.19318 104.99414 -665.91766
414.66263 104.29259 -665.77191
414.9136 103.18149 -665.65308
413.76923 105.69077 -666.03198
418.10672 105.24946 -666.28632
416.00873 107.14078 -666.59753
417.0549 108.07185 -666.87646
414.48206 109.64192 -667.17627
415.77774 110.65256 -667.34094
418.00061 108.58636 -667.1261
414.09122 111.90543 -667.59619
451.57373 167.92149 -692.92023
452.5264 167.37485 -692.63989
442.78149 36.337967 -659.58856
444.02869 35.198441 -659.73517
436.08722 41.893486 -659.24487
436.85999 41.87883 -658.93774
434.39563 45.067139 -658.49902
434.79221 46.09111 -658.0379
429.90802 50.481262 -658.20129
432.20135 50.522308 -657.59637
430.63983 52.33432 -657.6543
426.20389 55.728844 -658.01135
428.49432 55.671715 -657.55133
429.16257 54.96492 -657.60583
424.00174 61.366867 -657.8739
425.68515 60.616547 -657.70367
421.79254 63.530273 -658.17627
423.11099 63.731552 -657.95612
424.90671 63.078911 -657.88739
420.53244 66.816574 -658.40399
424.11432 64.740456 -658.04449
418.41223 68.727203 -658.59991
423.81339 66.62394 -658.15845
421.36728 69.572861 -658.67737
422.34906 71.805183 -659.02234
419.94885 75.064995 -659.62012
422.13739 73.067574 -659.31451
419.89526 76.801483 -659.99188
420.85785 75.456802 -659.72821
419.5462 78.36248 -660.23785
421.5545 77.318459 -660.30212
422.63733 76.693634 -660.1524
417.04657 80.363419 -660.59698
420.21585 80.337311 -660.81256
422.08194 79.313179 -660.78015
418.7323 82.426369 -661.14783
420.82849 82.2827 -661.29865
422.84869 81.717575 -661.37469
425.28619 81.3041 -661.63483
417.78406 84.26181 -661.46857
419.29926 83.78933 -661.54895
419.74969 86.334305 -662.12201
422.69818 86.584229 -662.52496
418.06168 89.35006 -662.66724
419.77664 87.783417 -662.4389
422.92819 86.871307 -662.56537
424.31967 88.163979 -663.05377
418.03336 91.640602 -663.16711
419.11298 90.297752 -662.94373
420.05615 90.967354 -663.18683
419.4433 92.700218 -663.55688
420.57846 92.387253 -663.54541
419.51913 95.227196 -664.14832
421.79742 93.49678 -663.93835
420.79504 96.399582 -664.56073
419.59158 99.658768 -665.13336
426.13409 99.239151 -665.90472
419.02701 102.5009 -665.79059
419.1636 107.78143 -666.99188
422.7724 112.3298 -668.5495
464.71552 22.694572 -662.36133
457.43878 28.135193 -660.39807
465.1756 24.859604 -661.77557
467.10107 23.063736 -662.46289
454.31238 31.097961 -659.3504
454.62158 30.28215 -659.69952
456.42523 29.889641 -659.68347
446.91376 35.527824 -658.77173
444.13876 37.243141 -658.69482
446.08606 38.624573 -657.87079
440.67715 43.16394 -657.5224
437.42026 45.708099 -657.57263
436.69623 49.365799 -657.13751
432.49466 52.099724 -657.28662
435.62299 52.416924 -657.0929
430.14545 55.522575 -657.36395
434.22699 54.526299 -657.28625
433.40546 55.680801 -657.20203
428.80029 59.001633 -657.50403
425.76245 63.499496 -657.83063
430.07135 60.662849 -657.66785
432.55786 60.803009 -657.86755
426.34705 64.573845 -658.03888
427.77832 65.10601 -658.19586
425.56049 68.376991 -658.71002
433.08865 66.398949 -659.27106
424.65863 70.718025 -659.04022
426.60486 71.246895 -659.46484
427.99091 70.076698 -659.33972
431.69278 68.567863 -659.5647
427.03256 73.103035 -659.97076
431.76471 70.160622 -659.9671
426.79724 75.609467 -660.48779
429.29767 75.250351 -660.78558
432.4079 75.04863 -661.16772
430.32013 76.551605 -661.21704
431.22284 84.671562 -663.31134
429.80145 94.313171 -665.2536
505.31494 103.60895 -692.75848
504.72614 107.48583 -693.98352
503.51447 110.81854 -694.20416
503.90979 109.28812 -693.93451
501.96252 112.1206 -693.32758
500.97424 114.51551 -693.45111
501.64157 117.42635 -695.35596
499.59811 119.93098 -694.48682
502.02032 117.63424 -695.85358
469.04565 24.123856 -662.60901
462.67001 28.459354 -660.70978
464.93335 27.066349 -661.33246
455.53979 33.381248 -658.67834
457.77042 32.208099 -659.21118
459.49438 31.115273 -659.53735
465.16235 29.708267 -660.99683
450.42648 36.087936 -658.08624
453.4606 35.986023 -658.07825
457.94531 33.232315 -659.08386
443.50757 43.430283 -657.02972
442.02161 44.955116 -656.97852
443.74792 45.432976 -657.00366
437.1084 51.772675 -657.07092
439.68701 51.581421 -657.22778
442.39001 52.183327 -657.68158
443.42419 51.185623 -657.47504
434.68774 55.202019 -657.23834
437.84692 54.699516 -657.39832
442.11908 54.209518 -657.96228
443.46259 52.866753 -657.96216
438.26108 56.674492 -657.98663
441.6969 56.552094 -658.41467
442.74908 55.81926 -658.34497
440.2807 58.88343 -658.70813
438.84729 61.492462 -659.02026
441.82855 59.855782 -659.07349
438.69495 61.864304 -659.10803
442.28757 62.008858 -659.72693
434.8045 65.835915 -659.40491
440.56827 63.404396 -659.79816
443.43301 63.325584 -660.17627
444.55981 63.211037 -660.31598
436.21851 66.892143 -659.83978
438.90912 67.401375 -660.42664
435.7085 69.657501 -660.38501
435.6355 71.511658 -660.81189
444.96735 72.631546 -662.48578
436.71112 77.115616 -662.33838
435.71008 80.716431 -662.94025
445.43314 79.57373 -664.08521
440.30505 82.097786 -663.83466
441.14133 82.426361 -664.15674
442.99847 85.667587 -665.09583
513.46069 76.423233 -688.21771
510.77029 81.439453 -687.96204
508.17285 87.006851 -687.97974
509.76361 87.108063 -689.638
510.20312 86.156479 -689.67938
510.07678 88.071274 -690.31415
510.52655 87.53653 -690.56952
507.68652 92.747513 -690.09711
504.96689 98.396896 -690.10046
506.33163 97.909805 -691.24524
503.707 100.73412 -689.80054
503.89233 100.09341 -689.69177
506.48013 99.257996 -691.97522
503.5621 102.49008 -690.50793
505.14441 102.50846 -692.10193
504.34595 104.08499 -691.95551
499.01575 111.38644 -690.09857
502.48212 108.99577 -692.32123
500.09442 112.52112 -691.66095
498.93152 113.86224 -691.04114
500.14136 113.52804 -692.18781
498.43634 116.73359 -691.96069
500.13922 115.05262 -692.8006
495.90439 120.62915 -691.2998
497.20319 119.06439 -691.85864
498.09534 120.75559 -693.40723
493.91284 124.85409 -691.24762
495.62787 123.92329 -692.50385
492.84232 126.38856 -690.95239
493.40384 126.60883 -691.59985
466.38354 31.760101 -660.89612
468.62366 30.64418 -661.56873
454.6976 37.137039 -658.04816
459.8616 36.152016 -658.92694
468.51544 33.418686 -661.07123
472.93164 31.944679 -662.19916
464.51031 36.177406 -659.91162
465.46637 36.788063 -660.07159
469.98895 34.61602 -661.24646
472.0047 32.44809 -661.97418
475.26581 32.68 -662.64398
447.03528 44.210342 -657.02008
451.52499 41.934715 -657.23865
453.18311 41.53743 -657.43762
456.72943 41.012817 -657.92438
446.46844 46.011635 -657.0434
448.51367 46.544601 -657.34357
449.83502 44.476723 -657.20844
453.00748 43.887016 -657.50311
454.50574 43.921364 -657.70667
450.05579 46.538589 -657.53949
453.1618 46.78344 -657.92529
445.05319 51.644791 -657.81348
446.84058 49.447159 -657.5871
453.98468 47.444305 -658.20209
444.38184 52.278 -657.87427
446.14566 52.043449 -658.07581
451.68127 50.592842 -658.60742
445.48901 54.170799 -658.36505
448.17517 53.229118 -658.66589
454.2934 51.496918 -659.15692
447.63022 55.520294 -658.94708
452.69122 54.469894 -659.59259
453.9754 53.982437 -659.64288
445.46512 57.788666 -659.21411
448.10632 57.428772 -659.53033
449.50418 57.047638 -659.66827
445.28702 61.812691 -660.07953
448.55902 59.660919 -660.06189
449.11801 58.827614 -660.0705
453.67932 58.576195 -660.66022
447.02643 61.81089 -660.3797
448.23245 62.259544 -660.81305
452.6106 60.721046 -661.00861
451.97955 65.267067 -661.82892
510.77264 74.988785 -684.9035
512.50476 73.582245 -686.09821
512.21838 75.262321 -686.45105
508.97641 78.99147 -685.02661
507.08591 82.492455 -684.70575
508.59155 82.010437 -686.0683
509.42679 79.972374 -685.94257
505.90735 84.027496 -684.36243
507.00735 83.589806 -685.32385
508.95465 82.448524 -686.64325
507.40295 85.179192 -686.44171
508.76733 84.624466 -687.40399
506.37238 87.981163 -686.70447
507.85699 87.591705 -687.91785
504.74573 89.986031 -685.9408
504.0683 93.41465 -686.93365
500.10919 98.390419 -685.27917
500.14447 100.96459 -686.34106
498.30566 104.31182 -686.15131
497.43405 106.99312 -686.56592
496.30682 109.572 -686.57593
495.22687 112.4761 -686.90533
496.65744 112.35921 -688.20483
498.08887 111.57777 -689.28986
491.54001 121.19334 -687.29315
492.48969 121.35422 -688.30237
490.22491 123.86372 -687.1452
493.78378 122.80318 -690.20276
489.58145 127.07558 -688.11163
490.7045 125.83462 -688.58136
491.16364 128.05104 -690.08795
488.9104 131.3109 -689.37579
490.48694 130.80905 -690.70319
486.14008 136.51901 -689.34576
472.01361 151.79849 -686.6134
457.06873 41.491936 -657.94336
461.56281 40.062691 -658.81622
463.62219 39.390862 -659.26801
469.81638 36.378365 -660.89929
475.6344 33.478577 -662.54413
456.27179 43.733871 -657.83667
457.96979 42.785332 -658.11871
460.68091 41.722542 -658.44128
461.74463 42.505974 -658.57953
473.11444 37.72847 -661.45404
475.87799 36.352448 -662.16669
461.45374 44.584602 -658.80249
461.81372 44.770279 -658.81049
