ply
format ascii 1.0
comment PCL generated
element vertex 1494
property float x
property float y
property float z
element face 0
element camera 0
property float view_px
property float view_py
property float view_pz
property float x_axisx
property float x_axisy
property float x_axisz
property float y_axisx
property float y_axisy
property float y_axisz
property float z_axisx
property float z_axisy
property float z_axisz
property float focal
property float scalex
property float scaley
property float centerx
property float centery
property int viewportx
property int viewporty
property float k1
property float k2
end_header
-301.62091 90.753777 -717.65045
-258.65131 175.11821 -713.39484
-79.317368 -16.387123 -702.54291
-263.93018 184.26999 -715.82739
-115.34987 128.09326 -654.42535
-100.18412 25.143135 -712.70282
-231.38817 167.56493 -703.33148
-316.98267 149.4493 -736.24292
-208.67911 178.11522 -696.97009
-108.00172 212.00853 -666.42938
-194.80075 232.54865 -704.68109
-139.03099 167.14438 -674.15613
-177.34952 249.91641 -711.02966
-271.3855 137.88667 -736.47784
-320.24039 173.96225 -746.11389
-343.56738 125.25205 -720.96118
-59.037125 163.96788 -636.5788
-311.58417 133.85359 -727.87604
-207.36412 75.896851 -720.37305
-30.923714 -36.916145 -703.77905
-266.16187 97.05983 -714.79736
-42.958584 -14.95187 -711.0448
-233.87816 58.583645 -707.28229
-197.75629 157.31316 -690.95453
-290.01587 206.02739 -726.6134
-240.39931 202.5999 -709.86957
-134.01685 149.2822 -669.22791
-146.91699 49.723896 -719.91644
-109.14213 126.86992 -650.60797
-310.61578 165.2318 -744.37793
-172.6181 59.970028 -719.63599
-4.275589 90.880028 -626.49841
-277.70496 204.90851 -722.35303
-144.91365 45.118149 -718.1189
-152.77237 226.0244 -693.7981
-292.30798 157.83922 -741.54272
-298.8244 135.88492 -730.34344
-192.95764 85.326462 -727.41113
-222.85167 251.63843 -720.88312
-150.27223 171.07396 -677.82709
-43.548359 154.15417 -631.18323
-164.75565 62.899834 -722.31757
-303.80634 168.05907 -745.72406
-319.10144 116.5135 -724.11304
-15.485199 -47.640095 -704.79236
-181.16849 170.0889 -687.02844
-184.03503 251.57231 -713.32098
-298.87872 230.93132 -731.76611
-59.403149 169.72113 -637.8479
-187.80162 47.900242 -711.28882
-97.317879 100.41991 -645.79358
-170.47476 196.45444 -686.78564
-125.71839 1.9235849 -701.27893
-134.1024 159.42377 -670.13013
-141.26556 34.658432 -713.91412
-205.53508 203.26128 -698.75903
-52.865128 -31.469242 -701.22931
-203.83841 170.28064 -694.4718
-171.06471 183.5965 -685.41089
-154.22711 57.073643 -721.79865
-132.95236 114.66763 -666.80969
-246.48454 164.01781 -710.00525
-113.99576 184.19313 -661.55127
-210.19174 82.75145 -723.05353
-170.22043 203.77899 -687.95203
-236.63373 93.374245 -722.72272
-275.57788 80.740158 -705.45782
-26.510689 144.27171 -627.8631
-182.63689 80.047264 -727.18793
-196.944 170.29721 -692.26404
-173.56291 35.648064 -708.29309
-259.92224 202.2458 -716.27551
-226.56689 250.01439 -720.60828
-307.36679 206.43214 -732.69421
-39.602234 41.3937 -647.44366
-101.78984 28.002632 -712.37946
-140.30939 204.91566 -681.62854
-322.64172 145.46481 -733.45221
-258.53668 217.54956 -717.33527
-17.883354 156.70464 -632.85815
-107.23465 15.184269 -711.70062
-37.895973 50.718723 -636.73492
-54.779842 -5.9158688 -711.45416
-243.57321 200.44749 -710.6842
-217.91624 44.555191 -703.69202
-7.7059326 41.345985 -633.48206
-183.97858 80.10611 -726.81567
-164.08124 156.06615 -679.79572
-163.63963 161.75674 -680.26703
-297.86844 142.05583 -733.42438
-54.524128 37.201221 -662.35864
-241.80978 204.78796 -710.56268
-119.4238 112.70352 -658.0188
-110.89204 -0.73658752 -703.32477
-225.55066 250.84116 -721.00323
-238.08217 238.49948 -716.3905
-177.55571 212.85376 -691.95258
-140.19759 97.815269 -689.3761
-134.37967 122.62898 -666.3252
9.618988 73.454796 -629.25421
-260.78723 128.91246 -734.39832
-146.01605 231.35603 -693.25586
-209.27467 173.65388 -696.62268
-176.70049 147.7486 -683.03058
-205.36092 58.996052 -713.07263
-245.21272 85.220985 -717.40112
-183.65044 68.560425 -721.4411
-298.53381 134.70462 -729.80859
-13.635574 125.73301 -629.0766
8.2650146 75.075081 -628.64893
-172.76041 205.93605 -689.04279
-96.982185 54.022266 -684.19342
-187.07932 48.756657 -711.81183
-230.87755 113.09776 -732.92163
-326.17184 100.70444 -714.90393
-197.32648 44.880722 -708.12097
-193.27704 150.54155 -688.76013
-263.44165 82.499619 -709.38702
-330.47522 122.12489 -723.32312
-135.0923 108.59858 -673.57971
-176.5473 232.38666 -700.73352
-54.157948 -24.115334 -704.32654
-161.56049 225.33397 -694.15356
-116.37803 24.735043 -714.34857
-122.53519 157.54567 -661.16016
-324.57129 115.98386 -722.25879
-223.63101 61.91304 -710.91907
-214.20039 48.789803 -706.60254
-74.053703 166.22054 -642.05109
-107.84599 191.46593 -660.9231
-237.93736 219.16373 -710.93372
-193.29253 241.3869 -709.37158
-349.51379 105.63556 -710.20471
-159.5265 19.87591 -703.375
-0.61071777 56.600746 -626.28302
-285.31314 204.29822 -724.9436
-300.76361 84.336227 -714.93207
-49.324234 77.573227 -630.05865
-239.04887 209.03485 -710.13293
-142.37241 130.47012 -669.37598
-173.00453 199.01526 -687.97083
-296.03802 234.38998 -731.2597
-7.778595 108.66811 -628.25116
-251.21121 223.69467 -715.67328
-209.44162 245.02159 -714.62134
-245.26776 167.61139 -708.41101
-239.69347 188.21935 -708.11407
-306.07074 130.90822 -726.77966
-192.38434 200.61287 -694.34308
-167.58487 137.45726 -678.64288
-139.97336 148.49194 -671.4411
-277.71252 106.62399 -731.70233
-27.879532 135.17297 -626.64355
-131.69026 167.40421 -669.15051
-74.886513 71.210052 -642.93427
-45.159996 40.132832 -652.52539
-75.660912 75.814026 -639.81555
-137.91428 180.03369 -675.56726
-111.26271 172.93733 -657.53613
-24.638351 -44.1376 -702.98187
-133.73141 117.27428 -666.62317
-143.84538 130.2025 -669.91376
-94.261169 182.39963 -653.3877
-233.27809 220.53557 -709.62231
-62.758369 -6.1600714 -710.81763
-316.59351 123.93023 -728.17603
-262.06427 187.12152 -715.43872
-201.30011 78.421921 -722.68036
-159.66425 179.3446 -681.17944
-54.374229 72.871284 -632.62726
-237.09982 193.80548 -707.90515
-4.9385071 60.903267 -625.72583
-10.709557 69.009422 -624.09448
-320.08368 113.40786 -722.38849
-24.867538 119.73406 -625.1441
-151.00166 12.847023 -701.51617
-23.860184 115.17305 -624.76117
-147.00143 134.01518 -671.45068
-114.97081 16.034813 -710.68738
-120.2291 175.01169 -662.57233
-296.29602 209.82845 -729.24005
-148.26492 163.70081 -675.96484
-226.20284 110.30221 -732.49927
-120.57114 103.62814 -665.96533
-9.4210434 113.37025 -628.505
-170.26462 210.48457 -689.42804
-105.58772 16.225445 -712.4798
-88.795563 49.745285 -678.98114
-302.50323 110.38568 -726.24713
-68.44648 -26.81086 -699.89099
-31.129143 65.954041 -629.76129
-30.514099 139.56796 -627.19434
-319.32272 91.521347 -712.74231
-164.74152 193.89812 -684.81458
-166.82628 130.15726 -679.52795
-289.37897 216.10873 -727.21399
-181.19032 54.998856 -715.73822
-213.34827 48.74054 -706.80969
-69.682549 -9.9683952 -707.75684
-56.065933 -18.931618 -706.36499
-152.38864 177.90157 -679.51215
-61.571037 156.10507 -636.58356
-163.3327 191.92755 -684.08563
-328.44104 166.86905 -744.53693
-101.11263 10.319999 -710.8208
-225.74731 174.71571 -702.16766
-162.24561 54.437016 -719.09521
-229.17674 93.503418 -724.27911
-31.169159 160.49562 -629.27991
-62.959969 167.44673 -638.51849
-151.26265 138.79477 -673.39301
-233.6705 177.04028 -705.0296
-64.614639 -8.8130112 -709.36798
-127.52403 210.12103 -674.41687
-144.86151 8.8595076 -700.72791
-166.69447 213.90808 -689.76221
-0.66046143 114.93472 -631.84839
-246.61804 261.53046 -730.65161
-106.23514 93.853645 -661.76147
-215.73109 261.70386 -725.03998
-89.193542 175.59032 -649.75665
-328.45685 175.23744 -743.10529
-0.69506836 66.592361 -624.32837
-286.00861 149.11404 -738.79285
-14.202744 104.75581 -625.37738
-183.59151 220.99112 -696.42407
-300.54236 84.80629 -715.25201
-225.57407 91.661919 -724.13696
-109.88551 -6.1507702 -700.8042
-261.42279 250.93111 -727.677
-245.26381 262.18704 -730.88379
-119.35114 120.82854 -657.42133
-284.79688 204.03786 -724.70483
-160.51727 45.622162 -715.2384
-291.53363 194.26245 -726.36749
-239.16957 124.59025 -735.92999
-304.94971 204.79698 -731.75787
-63.280411 186.32196 -643.26379
-219.14209 161.64311 -698.7384
-66.718948 183.5712 -643.8432
-121.71793 209.51155 -671.37128
-206.67381 172.33716 -695.62579
-124.69292 157.52089 -662.76276
-268.36063 159.63542 -731.38489
-101.12898 169.47609 -652.38568
-58.118526 -33.495304 -699.23749
-249.57263 239.56627 -719.67181
-60.652382 -33.797806 -698.42242
-210.40343 176.29646 -697.27179
-89.74144 86.756355 -645.76001
-160.66483 174.53764 -680.8739
-207.02197 236.73795 -709.52991
-322.70062 96.875076 -714.17712
-98.355316 -11.390205 -700.9527
-189.517 122.2312 -704.62817
-167.83368 152.46271 -680.64734
-96.542984 125.34892 -645.0639
-59.891621 184.03389 -641.40332
-159.3551 16.583208 -701.67218
-273.37759 85.142502 -707.9187
-86.239029 16.813953 -710.40948
-252.30663 89.682327 -718.05933
-160.76744 39.928204 -712.68115
-86.997711 7.4879313 -711.85126
-180.67668 23.244833 -700.74872
-127.27863 30.15102 -714.68616
-242.94853 214.59698 -711.90253
-193.48715 219.18805 -698.28314
-218.23636 229.51711 -708.19818
-231.209 245.50584 -718.77753
-56.111591 -12.59483 -709.40747
-100.45346 14.63805 -712.63574
-216.03296 56.767147 -710.08008
-233.45979 166.72789 -704.03094
-327.82031 154.41096 -735.62634
-243.20302 258.32968 -728.33344
-232.64043 126.34551 -735.59589
-238.46262 263.53705 -730.32843
-89.712067 135.00684 -643.45667
-237.84541 247.9644 -721.50012
-13.658569 75.294418 -622.85925
-233.75647 66.737206 -711.17194
-146.50864 126.49482 -671.2135
-142.81577 116.53418 -675.17609
-136.37764 128.46506 -667.34991
-141.0517 145.5876 -671.21729
-130.60327 6.4785404 -702.6286
-142.99457 129.97607 -669.57483
-108.51873 102.86378 -655.96454
-207.87048 177.69977 -696.54333
-310.09033 158.81847 -741.24359
-281.67096 131.7963 -730.97827
-78.77597 169.56339 -644.52722
-38.257809 -30.325218 -704.99811
-269.07172 226.95488 -721.62592
-293.5351 150.5881 -738.10059
-231.06566 64.537895 -710.70599
-130.5576 27.235806 -712.72351
-277.10837 246.37462 -728.89258
-51.009155 -17.560942 -708.09442
-319.23267 137.78215 -730.13049
-347.20416 105.16309 -710.68463
-218.15161 201.43822 -702.53748
-132.40625 59.02454 -720.17041
-200.42137 86.379616 -726.4873
-62.999378 77.574921 -633.78699
-276.12939 224.43405 -723.74652
-243.02931 216.11212 -712.14636
-276.14926 259.44983 -735.26941
-299.57367 102.52988 -723.62854
-206.74226 174.6474 -695.9314
-325.3728 181.75423 -747.26764
-269.95047 85.755409 -708.90289
-234.81947 205.82103 -708.46265
-51.489094 53.279221 -641.08411
-267.47766 138.46222 -737.39868
-60.505997 -28.309963 -701.10895
-168.20551 191.77373 -685.45923
-178.48059 244.80504 -708.33246
-299.97913 154.88676 -739.22644
-167.42804 189.72423 -684.9458
-94.187759 -0.99009895 -706.87122
-131.22302 3.1846695 -700.65906
-77.721794 -13.488388 -704.24371
-131.8031 107.99682 -670.81049
-251.92224 95.838303 -720.88885
-113.30829 188.92126 -662.3941
-243.37094 99.09893 -724.04822
-324.07642 101.36605 -715.78577
-307.05554 147.67697 -735.49188
-300.89746 81.044891 -713.3869
-292.61658 227.95988 -729.49292
-135.7908 177.82811 -673.75739
-157.87994 14.621364 -700.94226
-243.36015 239.33618 -718.05109
-176.58258 172.87991 -685.90271
-45.241676 32.678612 -662.17047
-251.71678 89.585136 -718.11523
-134.47279 173.20874 -671.99585
-159.70143 244.22005 -704.41486
-40.241871 33.45105 -658.14929
-145.71078 129.92883 -670.5827
-193.81587 155.53606 -689.37439
-21.031677 47.845089 -633.81683
-145.93871 186.84694 -680.79517
-50.363457 41.687519 -654.04724
-139.8652 49.945225 -721.0918
-211.2265 158.71275 -695.62244
-91.581329 104.01652 -642.48145
-241.16533 258.13104 -727.78192
-213.24966 81.610214 -721.89911
-226.12538 205.75006 -705.66095
-82.320557 80.899193 -642.26117
-37.306873 159.22852 -629.61646
-129.01547 193.20775 -671.59656
-152.17068 180.67628 -680.05139
-199.22205 230.72472 -704.58057
-140.2 149.61955 -671.61218
-90.121719 161.983 -646.47302
-21.414726 160.59602 -632.28345
-8.4773865 20.067493 -660.2926
-20.645264 59.146317 -629.93365
-55.297325 165.93086 -635.72125
-334.91162 133.55319 -727.26715
-180.3165 205.73697 -691.28729
-239.30238 180.71042 -707.29395
-117.76363 137.07112 -656.17639
-257.18091 221.91582 -717.37762
-171.72668 125.38575 -685.91663
-45.015438 157.62538 -631.81702
-130.61951 33.33551 -715.57214
-258.71082 235.88721 -720.45587
-224.32266 96.463776 -726.53662
-266.21747 183.94145 -716.65009
-113.62328 150.5358 -654.31818
-289.03043 246.90636 -731.93121
-60.559486 173.5387 -639.07288
-31.465771 -27.527344 -707.81061
-159.37086 132.12518 -675.76111
-131.74045 220.12221 -679.34943
-113.0499 116.42471 -652.82233
-256.75449 189.28763 -713.93268
-132.90741 29.087767 -713.01489
-162.7261 69.103897 -725.18982
-168.19592 57.06916 -719.18628
-269.45523 146.61903 -738.60699
-28.030014 -46.305679 -700.98743
-275.99042 209.96507 -722.25763
-240.73842 67.736 -710.20355
-101.95392 191.9176 -658.76001
-104.06989 25.259491 -713.90363
-238.57512 116.79025 -733.16437
-102.68826 172.95178 -653.96246
-50.684696 58.759521 -636.61798
-203.28412 168.13959 -693.97418
-97.069237 -9.1812916 -702.21368
-90.367447 103.40825 -642.13928
-203.83458 78.251007 -722.16406
-151.1152 47.475964 -717.89508
-241.82742 254.83032 -725.90881
-132.74432 224.30302 -681.03741
-235.39853 180.6212 -705.94269
-193.93393 161.3549 -690.17609
-152.20316 145.96579 -674.60822
-0.60505676 48.536446 -629.03387
-142.24704 179.73256 -678.01178
-163.16875 220.69714 -692.12256
-282.05286 113.87569 -733.77386
-221.44035 201.87741 -703.65338
-323.90466 106.22621 -718.08405
-123.97781 146.53046 -661.25952
-211.7518 217.13852 -702.71198
-131.07767 208.66574 -676.27966
-246.4272 66.666618 -708.63312
-233.02657 156.02191 -709.30859
-134.217 212.77463 -679.03625
-82.996094 157.03204 -643.08807
-134.61493 183.0797 -673.60962
-48.93161 66.804062 -633.41766
-284.48444 96.625237 -711.16473
-47.524639 -36.151424 -700.33649
-235.82118 178.53976 -705.88647
-259.47723 237.78961 -721.16791
-304.05475 146.40237 -734.93152
-74.959229 164.10777 -641.86176
-252.60762 122.00933 -732.84943
-59.861794 70.113823 -634.75903
-254.2923 198.75783 -714.01404
-355.69891 105.51418 -708.24854
-312.0285 114.19367 -725.14948
-275.41537 240.9243 -726.52667
-16.188477 105.2932 -624.84869
-56.435158 59.640923 -638.21387
-171.33282 153.41356 -681.76868
-112.41203 190.68478 -662.4848
-4.9078369 120.83167 -631.39862
-208.80933 169.27887 -695.93677
-64.132851 61.010872 -642.92841
-72.028221 171.54784 -642.68219
-48.425423 70.483505 -632.08453
-91.372337 133.49976 -643.83618
-65.223969 46.082283 -660.11652
-244.00514 67.219368 -709.32288
-184.69409 240.72784 -707.24365
-145.12685 164.76883 -675.59454
-230.79492 81.094093 -718.28522
-185.38123 197.60083 -691.71887
-164.31738 47.545437 -715.68561
-211.16806 246.64482 -715.88904
-218.74004 198.203 -702.43408
-4.7952118 142.47556 -634.94061
-83.912598 74.199966 -649.86792
-221.61482 199.05295 -703.46515
-172.82399 50.071857 -715.07349
-326.58618 128.7677 -727.51923
-111.88037 206.28046 -666.40222
-209.57867 162.43172 -695.40234
-229.51422 159.75629 -704.0177
-233.82129 237.81111 -715.48175
-275.45984 91.389359 -710.41217
-126.27574 208.38208 -673.44885
-288.82446 206.27969 -726.36072
-155.30537 11.458904 -700.02692
-137.65202 38.852425 -716.71051
-147.07272 202.24185 -684.67224
-79.63166 196.60707 -651.84045
-94.079605 69.061356 -666.85675
-73.340408 46.333275 -667.01617
-195.30605 161.8405 -690.6189
-194.33603 56.595074 -714.07227
-122.15833 18.103373 -710.11334
-290.72491 240.20976 -730.37933
-44.74913 77.427429 -628.91705
-223.61787 192.57312 -703.36621
-251.85455 241.8542 -721.06567
-155.74045 145.1183 -675.74237
-225.16524 89.161644 -723.07642
-86.497833 166.47023 -646.37317
-101.03735 104.84441 -647.06946
-149.70184 188.14316 -681.66479
-69.68013 189.25896 -646.35242
-280.37564 227.44707 -725.35101
-244.18773 121.12399 -734.07483
3.3890076 62.639931 -625.32544
-43.508869 60.325016 -634.54065
-346.71454 114.08135 -714.86627
-268.06979 243.38466 -725.47852
-239.8049 179.71001 -707.36389
-32.437546 168.91818 -630.27954
-187.97124 74.338303 -723.29413
-76.9655 -9.1168098 -706.65784
-215.69141 86.401558 -723.6405
-45.226173 155.2231 -631.78717
-310.44824 203.91582 -733.83655
-39.463806 -27.153275 -706.08813
-95.171158 106.99761 -643.81281
-286.25836 115.2384 -733.1817
-157.41562 173.89442 -679.85645
-154.60941 40.285187 -713.96484
-232.85005 225.18471 -710.51685
-81.961205 150.40828 -642.07135
-162.61504 231.92967 -697.84851
-206.6716 45.495377 -706.51489
-60.595482 -23.072203 -703.57312
-8.0112152 73.678261 -623.10089
-339.64081 110.08972 -715.16626
-172.59995 253.51772 -712.21021
-318.16965 138.28656 -730.36572
-231.98021 164.32347 -703.65247
-133.6356 113.18909 -668.16125
-243.76089 223.85078 -713.29468
-182.3558 59.539337 -717.60736
-175.34048 158.92216 -683.81152
-23.369087 82.613037 -623.07056
-210.98178 67.00238 -715.72931
-10.137436 49.940975 -630.74542
-69.501373 -3.0888472 -710.84711
-187.21255 81.977524 -726.93018
-258.117 184.09212 -713.96008
-252.27815 71.294601 -709.59814
-101.35491 202.29192 -661.32861
-28.814682 50.755699 -634.58636
-182.04196 169.9234 -687.42267
-134.98358 8.3666353 -702.54187
-202.65504 52.495911 -710.66833
-264.44196 183.68541 -716.01447
-263.80722 94.63768 -714.13916
-38.868435 52.410492 -636.35632
-234.4272 225.79694 -711.12848
-266.99878 238.48235 -723.45087
-282.82257 207.07042 -724.32654
-74.978218 77.656601 -638.47437
-122.52762 150.54318 -660.43793
-250.11745 191.60692 -711.91144
-34.984703 55.647133 -634.33185
-321.22003 188.98265 -749.46918
-193.0394 174.08611 -691.43549
-275.76752 198.22444 -721.1521
-7.04245 121.98473 -630.79993
-186.67883 184.85059 -690.61841
-99.503464 205.17928 -661.35577
-160.21039 211.86606 -688.50659
-287.38177 199.40039 -725.20673
-174.09462 85.289062 -728.48712
-330.02106 145.16626 -731.29968
-267.90033 138.03404 -737.18799
-65.027817 -26.968277 -700.68805
-42.529991 -22.814819 -707.46344
-147.49289 173.36273 -677.84399
-129.96722 183.10785 -670.34973
-56.946442 180.96919 -639.4129
-353.47382 103.52998 -708.04993
-275.15213 92.012657 -710.88824
-271.06265 183.62225 -718.5025
-290.11829 148.86644 -737.81891
-62.554379 68.100372 -636.30627
-241.20865 163.70424 -707.51801
-89.98732 195.78279 -655.36267
-208.93713 249.51799 -717.09058
-88.672577 12.541816 -712.27924
-225.91393 218.19061 -707.02435
-144.98483 217.88065 -687.27106
-226.94688 116.03606 -734.55914
-166.57845 49.148533 -715.7832
-251.1116 87.043671 -716.97192
-165.03348 79.428123 -727.08765
-39.484535 -17.378544 -710.53479
-262.07642 102.69043 -718.1543
-184.64061 54.082474 -714.69727
-322.3891 124.11801 -726.64703
-250.33617 83.185829 -715.39325
-15.639595 61.355644 -628.02527
-115.76492 176.20119 -660.40955
-129.49448 144.07399 -665.61853
-149.88675 170.66901 -677.61932
-169.62308 225.93552 -695.8988
-249.70424 224.19179 -715.37195
-81.270256 171.51659 -645.9314
-136.48973 176.77718 -673.97699
-61.660728 173.14545 -639.43097
-349.27673 106.66455 -710.78735
-221.04683 217.14034 -705.43719
-154.513 157.91646 -676.84894
-143.93616 188.88605 -680.43933
-4.2674255 114.97957 -630.57257
-222.30518 227.99835 -708.61884
-60.300282 53.919395 -647.23303
-42.044037 -13.452925 -711.46216
-217.19646 77.613754 -719.35376
-181.65536 159.04886 -685.85083
-290.75366 190.04819 -726.49139
-200.40935 245.53989 -713.26782
-314.62317 180.41136 -749.00177
-149.72015 192.75394 -682.995
-203.89822 215.98283 -700.2204
-141.5831 231.72612 -689.59613
-16.389832 90.377876 -622.71924
-253.26079 133.23578 -736.87396
-207.51956 104.5952 -731.21057
-156.31934 216.54559 -690.15344
-289.57013 126.29774 -724.44373
-193.15138 157.2596 -689.50018
-143.59175 145.65068 -671.73499
-276.12082 258.52682 -734.70215
-113.4996 131.88159 -653.28308
-303.30731 168.67366 -745.93365
-204.27167 219.34879 -701.16437
-321.7207 92.414482 -712.45477
-264.3833 207.66997 -718.28455
-65.479881 182.07385 -642.97968
-279.57901 88.51284 -708.47791
-110.90089 176.99477 -658.33484
-22.048706 158.49579 -631.74365
-197.61893 192.54762 -695.07349
-92.563309 121.17827 -643.62952
-210.73032 192.84897 -699.26471
-116.0228 -0.91943073 -702.11578
-161.19754 16.529381 -701.32147
-99.278664 146.95534 -647.17578
-103.82132 194.17384 -660.04663
-283.7865 198.86804 -723.92566
-192.04042 178.93698 -691.65656
-264.54254 123.01963 -731.05951
-104.18398 139.66594 -648.69061
-49.039059 48.920307 -644.41046
-84.878159 175.28465 -648.1933
-152.2892 137.4892 -673.63086
-125.82892 38.540138 -718.16504
-167.28976 168.74065 -682.43445
-280.04364 147.81311 -739.07111
-153.06958 167.56952 -677.61041
-179.70007 42.286797 -710.23505
-83.668465 174.02649 -647.46082
-301.82507 154.53874 -738.93091
-233.17644 176.37518 -704.81372
-240.58098 134.76988 -735.42444
-252.96962 225.6555 -716.45074
-173.1409 184.25128 -686.0733
-229.57719 211.70076 -707.3208
-92.573013 127.45069 -643.90094
-189.20323 212.27573 -695.2179
-138.0181 124.25275 -667.67255
-142.79199 219.96484 -686.37378
-236.67336 116.24982 -733.28125
-156.61867 231.60599 -696.84772
-214.37006 70.383392 -716.66479
-249.93925 69.686226 -709.30804
-172.87935 186.38133 -686.30298
-281.27429 156.2301 -740.58026
-203.58569 61.359646 -714.47614
-235.86726 124.66777 -735.95404
-37.723644 -28.907127 -705.68219
-169.23701 192.10532 -685.8476
-248.62967 96.407738 -721.85559
-24.033806 70.409386 -626.72308
-55.344513 178.07622 -638.11823
-14.748184 -44.614159 -706.13519
-3.3140717 105.62573 -629.28058
-281.90359 84.211273 -705.81439
-187.20712 85.605186 -728.36664
-264.38629 94.741089 -714.00732
-282.7583 115.49368 -734.30457
-26.177696 70.700516 -627.12158
-90.844864 112.27323 -642.61761
-113.75415 160.79959 -656.2146
-88.566422 195.61626 -654.82355
-219.95773 91.499985 -725.24078
-164.29443 30.446384 -707.62671
-243.67906 223.60416 -713.31799
-277.88629 200.3459 -721.98755
-133.39537 111.03708 -669.65424
-215.57587 171.66072 -698.45654
-13.367752 -35.443745 -709.87244
-210.90323 109.60607 -731.40216
-160.48851 245.10228 -704.97015
-61.980759 35.78389 -669.65808
-266.07092 179.65726 -716.40613
-288.81049 150.32655 -738.69727
-289.34924 140.49893 -733.67761
-340.80017 127.59356 -722.76111
-119.94986 118.14964 -658.03888
-251.40787 79.893303 -713.66779
-263.72919 158.46478 -728.73663
-284.79028 108.40245 -716.72754
-85.620949 188.26781 -651.8139
-177.16187 170.50774 -685.80109
-145.81985 188.64949 -681.13324
-273.46191 203.61491 -720.93127
-329.82513 163.56856 -742.59454
-275.11987 236.67769 -725.23676
-2.6193619 86.551216 -626.2901
-275.92447 241.61263 -726.76105
-201.5201 68.540482 -718.16119
-26.347542 -25.485512 -709.70959
-239.9511 124.33458 -735.83643
-198.34966 66.283203 -717.80829
-214.07893 149.76073 -700.91656
-253.69995 202.03439 -714.25519
-324.41302 157.23248 -738.00122
-71.971016 156.02397 -639.66663
-120.68079 194.87091 -667.31885
-92.40094 153.83182 -645.59155
-22.948349 77.209984 -624.18353
-208.33888 233.20535 -707.73444
-142.98474 52.822342 -721.75677
-203.44067 103.21725 -730.58044
-259.47034 136.80515 -737.30237
-167.40845 127.78637 -681.06647
-247.96266 238.46651 -718.51392
-156.05557 18.890579 -703.53528
-346.3009 121.54141 -718.44971
-310.49371 148.94769 -736.19397
-140.14868 132.58356 -669.03754
-305.32141 86.377457 -714.53821
-324.39963 97.982376 -714.18146
-168.47943 220.67949 -692.89557
-123.99812 121.00574 -661.01208
-7.9490967 82.818336 -624.04364
-85.209259 93.76532 -640.32568
-180.98434 66.137802 -720.93176
-131.5528 16.370489 -707.27826
-263.88156 204.88568 -717.83868
-144.52432 169.39525 -676.58185
-226.09789 80.529343 -718.97791
-218.16095 199.36086 -702.32849
-187.22504 165.5654 -688.40662
-325.427 179.64648 -746.1629
-170.27043 72.058769 -725.64685
-167.07903 64.706848 -722.87415
-123.00616 184.08835 -666.13885
-136.75809 177.34879 -674.40186
-271.32733 205.70184 -720.32135
-206.65929 76.362663 -720.76233
-210.06902 233.48827 -708.36206
-285.96866 109.82339 -717.08582
-343.65698 139.98802 -727.56952
-147.61943 38.556355 -714.51373
-43.553589 161.50648 -631.55939
-105.01465 192.57495 -660.09833
-133.2778 149.69745 -668.73621
-142.67271 218.2198 -685.96722
-322.02234 169.32625 -743.60858
-192.02252 77.454208 -724.01868
-2.3992615 97.683762 -628.18951
-179.35986 79.881058 -727.54633
-131.12604 49.685192 -720.68512
-114.75299 1.2748461 -703.48608
-270.46405 184.79967 -718.37366
-30.288651 23.997561 -665.78204
-231.91632 95.323898 -724.54175
-67.358582 157.14993 -638.35626
-272.92896 238.55179 -725.12195
-86.473297 72.562042 -654.27222
-257.68353 125.20995 -733.48077
-96.478111 124.72578 -644.96271
-107.35738 175.88042 -656.56085
-139.10075 124.79609 -668.091
-121.69153 24.964218 -713.35406
-281.48572 227.37859 -725.7135
-122.89867 162.55997 -662.07928
-124.33397 103.24947 -669.45557
-40.341831 61.905579 -633.28186
-129.25797 123.06829 -664.20068
-149.8147 205.14102 -685.97278
-24.643654 59.570667 -630.70428
-94.02047 77.447197 -659.08551
-160.45178 48.701691 -716.7937
-180.97156 218.52037 -694.86829
-199.24011 245.78963 -713.06494
-156.2381 173.48975 -679.39258
-150.04774 156.24719 -675.19916
-254.31392 228.47275 -717.38367
-89.525177 59.807041 -669.9765
-105.65014 125.47084 -648.7074
-349.07294 121.84927 -717.66266
-100.64128 161.36604 -650.12518
-190.53641 186.42235 -692.07593
-173.33476 71.504936 -724.76727
-37.8409 -25.042393 -707.44141
-120.63753 152.32224 -659.29248
-262.36664 92.078056 -713.25885
-181.99075 65.19207 -720.26453
-0.16292572 50.487179 -628.36749
-152.33952 183.86264 -680.79272
-121.99564 164.07913 -661.74158
-325.69379 177.20213 -745.36035
-307.66522 107.22284 -723.33008
-228.11073 155.47884 -706.70099
-214.5061 172.9861 -698.25177
-237.63249 66.726212 -710.40125
-190.56836 78.810165 -725.00671
-132.92566 31.59968 -714.22235
1.2358398 114.8717 -632.4942
-224.72812 203.98781 -705.00812
-135.12497 28.136013 -712.24646
-209.93118 172.74471 -696.73773
-318.01288 171.10594 -745.66357
-152.64331 55.820889 -721.7218
-184.95715 199.66338 -691.92316
-5.2403641 94.483337 -626.75793
-293.52911 211.40984 -728.3479
-60.378143 157.04654 -636.30658
-62.501244 -18.521824 -705.24298
-290.74884 156.63004 -741.17651
-93.695923 144.66885 -645.09973
-105.27824 134.53102 -648.98834
-134.6077 157.88658 -670.51447
-192.3736 190.05115 -693.04926
-101.68157 207.22429 -662.72821
-39.130787 43.280979 -644.76312
-142.64487 201.68633 -682.53198
-22.160469 109.29847 -624.20203
-98.85466 129.07599 -646.05377
-207.10414 66.871307 -716.30115
-83.170746 178.60008 -648.4071
-193.2818 149.72252 -688.68237
-247.16991 163.51273 -710.74835
-236.39233 59.481236 -707.23944
-219.02567 115.79167 -733.80182
-19.949539 107.6468 -624.19489
-225.23688 222.05125 -707.5163
-98.538605 148.1411 -646.94293
-108.63879 141.78725 -650.99323
-177.34596 61.55875 -719.45416
-169.496 189.97594 -685.65991
-232.6749 98.417915 -725.87128
-244.59081 263.2074 -731.39691
-351.08142 119.36923 -715.98047
-143.79417 221.85225 -687.63312
-92.95327 155.31152 -646.05945
-183.8138 250.76164 -712.83801
-139.86255 13.344609 -703.94641
-198.53914 188.66689 -694.8244
-73.754333 76.652908 -638.15472
-60.442833 51.66843 -649.90521
-263.53857 239.05307 -722.71082
-24.030998 -31.869968 -707.84119
-350.21942 113.60091 -713.67828
-94.04673 193.72493 -656.34857
-237.0667 204.2475 -708.95819
-136.50127 100.50321 -682.92157
-170.19 183.75726 -685.10382
-228.17094 77.89653 -717.35553
-340.15979 131.46298 -724.81158
-159.5025 46.130375 -715.76312
-210.25073 156.9856 -695.31531
-323.10162 181.44731 -748.04688
-134.43806 174.42282 -672.27765
-162.7571 137.67966 -677.09521
-326.86206 180.58853 -746.23193
-182.70276 31.262716 -704.4903
-27.242706 76.068245 -625.50964
-88.19062 102.11981 -641.41492
-10.912674 146.13771 -633.47858
-20.941124 -41.883842 -705.02051
-83.069092 166.64427 -645.24756
-206.00697 175.30785 -695.74548
-121.80348 152.94252 -660.04742
-153.71799 193.70438 -683.34595
-230.43764 202.11252 -706.65417
-82.78743 -1.0644665 -709.21112
-117.85719 18.166279 -711.0108
-339.8512 124.28165 -721.57831
-245.36253 111.16862 -729.24634
-308.6026 82.426598 -711.73798
-50.081104 -18.674343 -707.75165
-295.63443 225.02531 -730.23315
-175.58002 188.1917 -687.41302
-200.31721 56.595673 -712.97589
-174.51697 51.762794 -715.61237
-127.48628 159.64803 -665.09302
-142.22328 32.024384 -712.54364
-305.05414 152.55452 -737.91272
-96.759033 140.95091 -645.93329
-290.76566 214.26419 -727.60986
-80.585587 86.747528 -639.11261
-195.85393 65.222534 -717.67462
-311.51837 135.85916 -728.97437
-278.24463 152.76543 -739.78424
-259.99048 103.05862 -718.6756
-201.09746 181.08202 -694.80096
-150.05492 230.88336 -695.02655
-9.4743652 53.36562 -629.39258
-153.63649 70.262238 -724.27448
-25.746162 -32.031334 -707.32477
-265.85498 277.52039 -743.4751
-138.82722 192.66493 -678.258
-120.43845 151.21516 -658.9964
-100.04289 139.88805 -647.01788
-74.972839 -1.1118975 -710.75165
-251.66768 137.26582 -736.56732
-210.44099 225.1732 -704.67865
-322.4538 118.49091 -723.99835
-120.4933 191.47469 -666.3866
-56.510185 -15.12219 -708.0481
-110.3141 201.88309 -664.58789
-341.5647 133.22888 -725.06885
-20.519501 150.10522 -630.77374
-285.80472 254.46242 -734.44196
-266.48352 237.77863 -723.05634
-100.09018 153.29301 -648.17938
-66.567245 168.59911 -640.07928
-157.5097 150.68712 -676.87311
-15.626724 -32.274094 -710.23932
-231.52173 224.91643 -710.08057
-251.86391 135.15741 -736.87054
-122.08068 28.298061 -714.96381
-79.660919 192.9416 -650.88763
-183.66609 208.74179 -692.85138
-300.82703 198.47427 -729.89301
-246.34395 122.43393 -734.20221
-2.2622528 45.402206 -630.56812
-155.19266 25.352993 -706.79102
-191.12865 214.53494 -696.15594
-100.97059 176.28433 -654.22388
-185.54352 197.27267 -691.74548
-252.37582 193.37761 -712.8457
-266.82288 102.46572 -717.19324
-10.810318 90.440582 -624.24536
-193.21901 46.174377 -709.73517
-133.50713 111.29682 -669.46893
-189.47217 176.39101 -690.59711
-150.16292 188.8 -681.94318
-352.28558 105.00138 -709.11609
-19.752243 59.683064 -629.47723
-217.18173 157.76352 -698.23645
-140.69174 105.92357 -683.02618
-307.02631 205.40863 -732.51593
-20.471474 123.12648 -626.37158
-16.454987 -29.447712 -711.01862
-292.54037 182.75346 -732.6189
-233.05856 163.82028 -704.14868
-129.36496 166.12535 -667.31354
-191.15128 42.876854 -708.55957
-65.447426 -8.5929718 -709.30627
-151.69849 47.966438 -718.19244
-62.128345 159.51917 -637.06287
-103.75549 157.02304 -650.4079
-247.73093 177.62704 -709.74768
-312.85535 103.92542 -720.3902
-150.91388 133.151 -672.72565
-111.42055 138.10483 -652.22809
-219.96114 201.12216 -703.15845
-99.30658 132.83694 -646.37366
-258.56357 102.52843 -718.7536
-136.25044 102.29006 -680.68768
-167.32072 139.56488 -678.88
-121.23161 205.91476 -670.24567
-174.89201 70.395462 -723.96417
-206.0437 227.37903 -704.52979
-211.07883 110.58315 -731.26227
-112.54839 169.59966 -657.4292
-197.65074 174.16182 -692.8877
-276.83975 86.933273 -708.04639
-172.49629 147.46692 -681.44495
-103.12456 -11.934189 -699.50616
-199.95993 227.17119 -703.01746
-120.69296 147.95636 -658.78888
-93.847031 141.22223 -644.97382
-161.32938 24.239191 -705.20587
-226.38072 203.58647 -705.54266
-85.931122 184.77435 -651.01947
-163.81136 232.37875 -698.41772
-286.83435 151.44061 -739.79138
-176.07065 43.496742 -711.40503
-221.26138 165.60661 -699.65875
-28.901993 -42.238548 -702.27661
-225.72885 222.74207 -707.92499
-256.35126 251.79489 -726.99371
-21.24292 109.8251 -624.31921
-318.56915 105.57964 -719.34167
-122.81742 214.93829 -673.3114
-104.67918 146.41556 -649.33014
-217.68481 194.95848 -701.78485
-126.54743 170.2188 -665.79303
-68.715225 76.50753 -635.82733
-306.59125 177.05067 -747.98206
-70.140022 190.13249 -646.80048
-75.456581 165.9794 -642.52368
-239.62761 209.95502 -710.33392
-139.13684 164.5545 -673.89276
-330.33954 132.57742 -728.11078
-243.80978 104.92967 -726.75427
-92.218658 194.35561 -655.83807
-233.46906 164.65027 -704.12384
-333.82837 108.95892 -716.31616
-4.1169739 -25.343666 -714.3537
-261.69055 202.50807 -716.83057
-86.977737 11.450015 -712.16113
-24.712814 -26.136032 -709.89941
-308.92731 142.58333 -732.77423
-36.02594 -27.050495 -706.94873
-165.82484 81.817268 -727.16876
-30.648788 166.14345 -630.18195
-111.56009 170.87151 -657.15967
-251.78706 244.22852 -722.03693
-217.23639 204.09587 -702.5957
-272.07916 211.36523 -721.11804
-91.12339 83.416275 -650.23724
-246.01073 125.66898 -735.7384
-172.49071 91.212982 -726.63947
-242.98105 122.21651 -734.7489
6.8108139 76.749763 -628.20245
-250.15869 139.39372 -735.62958
-137.61108 201.06409 -679.02057
-224.91023 108.57835 -732.02747
-284.01733 72.79277 -714.57086
-145.41235 149.82262 -672.91553
-265.01407 147.2556 -737.72278
-14.837234 71.832825 -624.09637
-166.5258 39.795799 -711.58289
-306.3277 196.09021 -732.70221
-175.2198 124.60561 -689.5188
-186.24734 238.87784 -706.57495
-224.83151 219.95029 -707.0777
-118.38734 213.45924 -670.90881
-207.4444 76.139465 -720.52911
-284.0675 184.80249 -724.76764
-210.57103 51.313564 -708.64624
-89.024139 136.03017 -643.36078
-276.52539 114.76134 -735.69611
-56.735023 164.52467 -635.95392
-151.2473 57.028706 -722.37317
-302.5683 90.05632 -717.09778
-172.19766 210.657 -689.93011
-244.78305 186.3997 -709.67047
-265.58218 199.8427 -717.86597
-119.43388 209.87859 -670.40094
-262.23267 128.15747 -733.8938
-280.11426 264.46783 -738.50342
-81.666504 83.351082 -640.43256
-109.43013 208.44907 -666.07031
-119.6631 26.213932 -714.43915
-240.99519 122.69919 -735.37476
-295.63007 224.16878 -730.08392
-148.31432 232.30771 -694.94452
-0.19705963 91.13163 -627.97638
-303.06171 223.254 -732.63153
-117.37959 178.92223 -661.89124
-270.58295 94.496529 -712.72021
-170.6944 153.9062 -681.59375
-9.7714844 132.32217 -631.55066
-251.37566 169.60432 -710.90601
-93.480347 152.41595 -645.71649
-178.60336 170.42268 -686.2428
-183.00006 193.0621 -690.41302
-114.93282 132.23212 -654.25012
-104.76604 24.725475 -713.97711
-199.96573 166.66919 -692.75476
-92.137482 -0.79871464 -707.32147
-199.67831 213.35669 -698.46008
-279.79102 94.806259 -711.23865
-222.98474 225.35373 -707.92914
-320.62976 111.28735 -721.26093
-124.70184 4.4230766 -702.86163
-51.581284 46.175163 -649.48932
-246.70638 185.06627 -710.13586
-8.5510254 68.521103 -623.95679
-175.16342 228.28325 -698.2171
5.0026398 62.835648 -625.89423
-112.11211 131.75873 -652.52948
-121.23341 151.44064 -659.54474
-151.56061 161.49815 -676.36078
-99.7798 170.98181 -652.35883
-108.47633 185.4528 -659.5166
-281.96008 86.605164 -706.92474
-15.820892 69.811882 -625.07782
-243.62186 183.72125 -708.95715
-16.853424 68.195808 -625.95862
-313.24188 89.845001 -713.6983
-120.25035 135.40076 -658.00781
-300.06891 159.80977 -741.58777
-112.23884 206.69188 -666.68134
-15.357208 49.579124 -632.01202
-81.539978 178.52275 -647.80615
-287.90369 224.06844 -727.48999
-93.686203 9.2161036 -711.71161
-330.70996 118.83803 -721.74255
-101.8241 129.4126 -647.20294
-60.193485 -33.223846 -698.85406
-73.278397 177.6662 -644.68494
-76.571732 73.4561 -642.49774
-210.80293 39.489193 -702.58624
-62.776611 175.95692 -640.48083
-156.79591 229.69972 -695.9469
-234.90367 241.68858 -717.49933
-66.300842 76.676971 -634.92249
-13.331474 75.708687 -622.6698
-236.48216 86.269661 -719.58282
-88.035965 192.65581 -653.81927
-114.38977 111.36221 -654.48077
-115.09453 180.51521 -661.15533
-287.43314 113.23244 -718.13879
-100.56111 203.09334 -661.26562
-251.96101 244.3347 -722.25635
-69.568672 68.594742 -640.09534
-241.32468 96.803513 -723.4455
-75.288986 -1.5881195 -710.52405
-158.48549 128.84241 -676.2807
-229.08722 209.77711 -706.98059
-141.57251 190.50665 -679.7229
-98.054489 2.9070005 -707.79266
-96.765915 139.38341 -645.82776
-326.61871 145.65089 -732.61389
-114.48962 5.8610878 -705.75842
-126.68861 139.98491 -663.20856
-294.07034 130.38773 -728.36108
-304.22726 98.745499 -720.53131
-156.28976 236.15038 -699.18463
-235.49028 248.50745 -721.43164
-82.243225 166.41377 -644.99359
-96.70591 179.4623 -653.53351
-183.27783 177.13112 -688.58862
-44.746742 159.79633 -631.76294
-288.65906 237.00931 -729.19525
-122.67885 212.5545 -672.58411
-221.89807 50.191078 -705.65546
-156.33754 41.160805 -714.1665
-270.01297 231.05788 -722.66107
-22.333504 142.60834 -628.87122
-229.74866 253.56108 -723.23065
-202.67023 71.620361 -719.32782
-193.51674 61.117424 -716.31018
-299.71216 132.60893 -728.70251
-257.7807 216.52901 -716.96985
-3.0700378 103.13662 -628.90979
-221.32506 70.075394 -715.11169
-27.636429 -39.337795 -703.93842
-334.12903 102.41962 -713.30414
-31.037086 160.0323 -629.16882
-263.9472 170.35576 -717.53406
-250.84377 99.196335 -722.64777
-99.661301 118.29527 -645.8833
-247.80086 182.47737 -710.28296
-11.714638 154.03915 -634.42499
-259.7243 133.2572 -736.54095
-13.365295 56.688652 -629.0567
-301.12488 153.76549 -738.63953
-248.03212 221.21402 -714.35852
-225.83029 113.52496 -733.98407
-320.35791 163.79077 -741.89563
-275.53552 223.49399 -723.44983
-163.99841 222.6447 -692.9895
-290.35712 191.97606 -725.98969
-12.933136 69.53643 -624.49841
-291.06885 228.87335 -729.06219
-189.87601 72.587654 -722.08099
-63.913528 -22.785734 -702.91461
-93.510941 38.191719 -695.28516
-261.36951 126.86751 -733.56744
-287.72626 71.609871 -712.93488
-70.68956 176.25658 -643.41284
-169.47952 74.662445 -726.6524
-197.1813 40.570507 -706.11639
-174.04398 231.25319 -699.70453
-222.03226 109.04268 -732.62512
-91.666122 135.60835 -644.05981
-159.21071 230.98003 -696.81873
-250.54201 222.50348 -715.27289
-102.73242 194.81131 -659.84045
-286.57782 120.60863 -720.92712
-149.17218 189.13664 -681.98383
-68.101616 -4.6779537 -710.54968
-249.06717 178.7151 -710.33685
-216.2748 162.48323 -697.6723
-96.614288 60.087036 -677.97577
4.212738 42.155544 -630.85333
-8.4081421 43.102776 -632.80182
-278.8222 257.70383 -734.71674
-301.77991 195.53725 -730.71136
-170.85487 171.58382 -683.82605
-206.74329 159.56242 -694.20349
-166.46089 126.69494 -681.49084
-293.09094 75.469254 -713.16962
-76.641342 148.66052 -640.47656
-236.75002 248.03084 -721.17377
-309.66846 87.522324 -713.77002
-189.49074 219.41478 -697.30957
-291.99982 131.21889 -728.87122
-314.43555 113.83575 -724.34497
-283.88315 229.46202 -726.85852
-144.05795 168.74788 -676.36835
-37.331711 64.736755 -631.64008
-123.32803 191.82722 -667.91394
-332.80542 149.32353 -732.04901
-41.172405 53.571407 -636.39954
-117.13995 181.64334 -662.43713
-103.46062 165.28419 -652.21777
-233.67459 227.75549 -711.52179
-131.3118 29.716694 -713.70471
-293.80457 233.67433 -730.44098
-143.13272 167.45415 -675.89673
-309.12036 105.38239 -721.97913
-90.800339 50.468418 -680.4184
-104.724 -0.8905201 -704.72162
-38.92799 -29.116676 -705.27954
-62.244602 158.19833 -636.86603
-315.95178 183.27469 -748.99835
-279.43915 227.18185 -725.02899
-118.17681 136.49872 -656.54962
-92.848633 6.8835287 -710.85052
-61.049774 167.22227 -637.86597
-22.849701 144.00839 -628.86182
-69.220596 67.406876 -641.04242
-23.686806 124.42218 -625.79822
-233.91 234.56433 -713.95581
-258.75537 105.09058 -719.84564
-95.887352 57.523964 -679.71857
-192.5983 81.954399 -726.09698
-147.35609 156.50696 -674.5191
-250.75513 241.0533 -720.46167
-44.035568 -36.510693 -700.84448
-278.7038 213.87932 -723.49451
-134.59167 23.93203 -710.24695
-29.280846 69.13504 -628.42188
-242.69174 188.06387 -709.10785
-198.5148 94.381729 -729.65784
-228.72478 49.95768 -704.14789
-335.23059 129.07361 -725.07086
-91.81723 125.10995 -643.57953
-162.76343 169.48718 -681.02271
-267.72275 230.51283 -721.8205
-196.06241 194.44403 -694.88605
-231.61235 197.6985 -706.55017
-263.49695 189.73509 -716.25702
-56.061829 61.861675 -636.80048
-194.01895 172.93321 -691.56671
-122.78374 106.96836 -664.20172
-218.85583 209.93556 -703.771
-184.10556 54.212719 -714.92114
-146.90768 202.57048 -684.67749
-56.633224 -24.082134 -703.84186
-111.67738 0.90396881 -703.94727
-22.663467 66.420868 -627.85645
-137.46291 228.41733 -685.08417
-268.07559 277.2879 -743.46967
-122.96921 179.98975 -665.23492
-173.99103 187.3662 -686.76227
-348.34656 110.24691 -712.72235
-182.55843 145.57683 -684.5733
-93.389038 114.3408 -643.5379
-18.619209 33.184963 -647.50684
-223.47777 154.44095 -703.88611
-255.04536 241.33821 -721.48224
-251.50269 96.238922 -721.1626
-28.559731 -46.655739 -700.71881
-136.03481 217.2235 -681.39716
-289.19019 198.39674 -725.78546
-78.319435 58.953156 -658.63977
-270.91992 254.85991 -731.66522
-121.0291 136.40811 -658.68164
-66.602089 74.470444 -635.47003
-60.075127 77.482925 -632.9989
-160.0421 36.676376 -711.20538
-269.63202 204.84248 -719.64795
-168.33698 185.88174 -684.78076
-8.7552872 105.37777 -627.40112
-24.615402 -16.307888 -712.35785
-88.752357 68.856926 -660.39423
-284.53003 151.35681 -739.89722
-236.54642 63.96373 -709.28027
-103.34612 22.23069 -713.80139
-274.52991 249.62656 -729.58472
-113.79582 7.5519018 -706.79828
-97.218216 179.9379 -653.80219
-76.792137 8.9664211 -710.84845
-68.170303 68.304932 -639.22821
-305.55328 192.9097 -733.69922
-107.8537 114.97219 -649.64557
0.60848999 47.336151 -629.32904
-264.07007 196.12932 -717.01959
-48.579544 61.681854 -635.10065
-150.2796 174.57195 -678.54858
-108.54533 179.78264 -658.08832
-169.88075 21.417404 -702.12915
-15.101883 122.05864 -627.95538
-148.95145 142.69356 -673.07782
-177.88431 250.91971 -711.77911
-163.47394 170.46213 -681.3158
-98.362427 89.990547 -654.39862
-216.62384 193.78827 -701.24756
-109.67471 103.04167 -656.72125
-10.959587 108.55704 -627.14008
-187.8004 256.21155 -716.69983
-181.57939 235.84222 -703.80658
-326.47577 156.63126 -737.05054
-339.69373 115.44583 -717.59424
-185.23203 173.19327 -688.79688
-257.52957 256.72382 -730.0791
-77.289032 -8.0869694 -706.87402
-231.31657 64.881042 -710.72913
-289.95367 225.53543 -728.27454
-29.223953 -34.440407 -705.35345
-325.45053 90.326965 -710.32379
-26.108398 143.49794 -627.81714
10.659637 70.990051 -629.63849
-113.09668 112.09531 -653.22833
-198.03348 57.875927 -714.01593
-90.444519 7.9680986 -711.71301
-149.57593 238.02518 -698.50513
-215.2029 199.51247 -701.4812
-205.56592 78.712494 -722.11426
-237.69975 188.05026 -707.56329
-218.9174 98.751785 -728.71222
-15.859039 119.8424 -627.30194
-178.16415 23.340145 -701.26855
-288.81021 72.783722 -713.16101
-217.69652 173.97478 -699.3822
-78.465073 155.27209 -641.52936
-155.64508 204.51175 -686.25598
-160.87782 176.89925 -681.24548
-64.404716 74.944725 -634.67944
-126.99138 38.040203 -718.10205
-247.4357 246.82352 -722.68054
-266.63062 232.72165 -721.95587
-296.52802 96.27845 -721.60211
-77.276352 71.569 -645.10773
-160.3688 58.313786 -721.23712
-101.85919 -7.0980492 -702.24329
-0.11763 99.200363 -629.31329
-201.04047 78.06749 -722.69452
-84.480408 10.168192 -711.99408
-207.92651 197.64658 -698.99615
-260.05231 140.81479 -737.46729
-87.374374 -11.395336 -703.48895
-149.64673 54.283665 -721.61224
-77.362228 -13.677082 -704.23962
-62.098728 75.754669 -633.73187
-220.32907 96.939034 -727.6391
-156.16518 114.00178 -689.11047
-172.7486 155.3564 -682.44861
-175.83038 52.242088 -715.48779
-197.45299 238.03149 -708.34027
-256.45105 56.248276 -714.96741
-17.930923 -51.873692 -702.61145
-271.40125 212.29202 -721.04968
-256.10669 82.718346 -714.04834
-10.45311 117.58765 -628.8327
-301.01974 132.45563 -728.32654
-119.85274 2.504715 -702.97736
-151.79666 213.93639 -688.33716
-321.01135 185.5928 -749.46216
-324.07809 113.49967 -721.38861
-5.3650513 45.763981 -631.12903
-202.35852 173.25101 -694.349
-54.072533 -1.9248829 -710.53754
-283.48285 184.29785 -724.70264
-252.60979 172.52657 -711.13098
-155.49074 197.73032 -684.50861
-95.945251 135.24054 -645.3468
-184.11977 238.58223 -705.7995
-174.77835 189.41508 -687.20917
-61.184544 47.546005 -655.21484
-171.77528 157.31601 -682.38879
-165.06476 178.85297 -682.82397
-71.363907 -25.084679 -700.12561
-43.190151 156.86642 -631.19037
-266.23499 165.21898 -723.98792
-171.63141 44.495434 -712.73688
-140.87396 122.46192 -669.3017
-315.30408 156.99121 -739.94672
-177.96053 200.35997 -689.73157
-294.75739 229.26128 -730.28906
-190.62509 246.74243 -711.91406
-245.60706 158.0423 -714.00598
-95.83606 6.7486906 -710.21588
-77.614845 -8.9863663 -706.57178
-1.3996811 54.643608 -627.10706
-68.83712 78.531487 -635.4859
-144.28214 12.597828 -702.67487
-142.4734 21.842869 -707.56805
-230.25255 116.41576 -734.33148
-229.62666 174.38222 -703.52698
-277.7258 111.41103 -733.88934
-233.56012 114.66831 -733.17615
-287.26025 115.34498 -732.95178
-127.15492 164.69168 -665.33777
-86.758209 174.88606 -648.75018
-159.79924 51.298336 -718.07965
-224.69287 230.34657 -710.15417
-118.83009 99.683548 -668.7019
-147.08557 218.42715 -688.367
-139.63928 136.76836 -669.34033
-302.10681 223.83528 -732.33746
-257.87598 251.72079 -727.32965
-351.68701 115.58436 -714.00867
-220.32068 82.73526 -721.08276
-195.16119 78.641457 -723.92029
-143.78304 181.3643 -678.86584
-163.28574 156.47818 -679.58252
-109.80098 15.24761 -711.28351
-101.11487 106.06202 -646.76111
-208.13339 230.6783 -706.48346
-239.29967 258.47211 -727.5011
-280.92407 188.96666 -722.30151
-44.108055 48.738583 -641.27637
-211.45161 195.92062 -699.8559
-317.08496 123.7657 -728.08374
-152.94144 222.18401 -692.24463
-134.33743 8.6396208 -702.80951
-270.18762 221.39372 -721.44958
-170.586 222.90627 -694.36951
-160.92627 156.08951 -678.67267
-176.05023 159.48924 -684.16278
-229.13882 50.774857 -704.40594
-142.62311 20.899603 -707.0542
-61.470898 168.23167 -638.13544
-306.4649 200.21979 -732.12482
-247.93132 169.77562 -709.38397
-212.11809 239.94589 -712.3064
-122.14971 27.502903 -714.49219
-150.39381 186.41698 -681.32831
-280.44904 109.2935 -732.18463
-28.536034 45.592968 -636.85309
-121.77251 168.78377 -662.29358
-117.51047 159.4221 -658.10004
-66.45639 -23.533577 -702.02057
-248.3678 73.081047 -711.1864
-55.732426 171.91548 -637.02203
-90.001266 171.17175 -648.83826
-158.72891 232.28952 -697.45398
-129.97952 225.61075 -679.75531
-165.45518 224.53914 -694.25159
-7.5670242 110.74695 -628.72369
-267.3205 122.98927 -730.23389
-206.11058 47.603729 -707.7204
-150.29767 20.789879 -705.48773
-182.33339 36.717445 -707.20044
-260.58795 96.010284 -715.50031
-197.48448 52.281902 -711.47638
-142.65448 126.17646 -669.53564
-27.247925 69.679085 -627.73499
-110.15555 184.73827 -660.01843
-37.522762 61.28336 -632.87524
-34.673759 69.48307 -629.32983
-271.15268 98.396233 -714.56061
-85.317665 151.93993 -643.1922
-190.00685 87.473724 -728.45795
-249.33934 103.39151 -724.87891
-31.059265 -35.8009 -704.31824
-320.20306 172.65417 -745.67468
-75.061325 180.65665 -646.05615
-303.57416 105.8689 -723.91003
-275.93729 82.505646 -706.198
-203.98329 187.94324 -696.58032
-94.0187 162.66377 -648.1062
-259.57605 238.50854 -721.64923
-162.50571 154.0468 -679.14557
-2.9519043 68.28141 -623.87122
-200.72441 189.17242 -695.66144
-123.37013 4.9292078 -703.55774
-228.5071 249.02162 -720.36572
-199.5558 208.2791 -697.57245
-233.86855 124.32029 -735.80048
-282.44986 253.36223 -733.17908
-246.19127 72.765732 -711.43396
-113.08727 105.74582 -657.28882
-181.38521 62.382576 -719.01202
-89.866943 131.56125 -643.31
-9.2582703 60.129513 -627.04718
-160.05841 23.390633 -704.95721
-243.89088 103.5165 -726.03577
-130.09387 121.27998 -664.50018
-311.70969 142.92125 -732.88208
-164.65788 30.227955 -707.44464
-208.43625 163.09619 -695.0661
-236.93329 221.17027 -710.90131
-139.95143 131.47107 -668.66327
-145.04839 153.29367 -673.31738
-120.27495 142.16534 -658.16425
-83.256729 -2.079608 -708.64337
-298.47272 83.110924 -715.0434
-174.95126 203.96941 -689.37286
-184.39166 27.74287 -702.36133
-310.07349 179.22079 -748.74066
-92.510162 168.4852 -649.01166
-309.89737 143.68394 -733.29858
-141.23308 38.405418 -715.64514
-281.57773 140.95609 -735.63702
-222.50424 156.88808 -701.4162
-26.987358 67.015701 -628.58215
-255.11977 139.00392 -736.81586
-160.15756 144.91203 -677.14551
-108.4951 196.1348 -662.37659
-3.3982697 54.855942 -627.4823
-141.1729 124.82865 -668.99786
-167.52594 218.20604 -691.53705
-75.719589 74.84565 -640.48804
-169.10226 54.392048 -717.83234
-214.25941 77.761887 -719.99536
-168.74536 67.67382 -723.92505
-222.00012 235.02866 -711.61664
-204.86758 206.24129 -698.88684
3.8512268 42.536926 -630.58453
